ply
format ascii 1.0
element vertex 1607
property float32 x
property float32 y
property float32 z
property float32 I
end_header
4.4104 4.3940 -2.3780 0.9737
4.3832 4.4209 -2.3780 0.9737
4.3559 4.4475 -2.3779 0.9737
4.3284 4.4739 -2.3778 0.9737
4.3008 4.5003 -2.3777 0.9737
4.2450 4.5525 -2.3776 0.9737
4.2168 4.5783 -2.3775 0.9737
4.1886 4.6039 -2.3775 0.9737
4.1601 4.6295 -2.3774 0.9737
4.1316 4.6547 -2.3773 0.9737
4.1028 4.6799 -2.3773 0.9737
4.0739 4.7048 -2.3772 0.9737
4.0448 4.7296 -2.3771 0.9737
4.0157 4.7542 -2.3771 0.9737
3.9863 4.7786 -2.3770 0.9737
3.9568 4.8029 -2.3770 0.9737
3.9272 4.8269 -2.3769 0.9737
3.8974 4.8508 -2.3768 0.9737
3.8675 4.8745 -2.3768 0.9737
3.8374 4.8980 -2.3767 0.9737
3.8072 4.9213 -2.3767 0.9737
3.7769 4.9445 -2.3766 0.9737
3.7464 4.9674 -2.3766 0.9737
3.7158 4.9902 -2.3765 0.9737
3.6850 5.0128 -2.3765 0.9737
3.6541 5.0352 -2.3764 0.9737
3.6231 5.0574 -2.3763 0.9737
3.5606 5.1012 -2.3762 0.9737
3.5291 5.1229 -2.3762 0.9737
3.4976 5.1443 -2.3761 0.9737
3.4659 5.1656 -2.3761 0.9737
3.4341 5.1866 -2.3761 0.9737
3.4021 5.2076 -2.3760 0.9737
3.3701 5.2282 -2.3760 0.9737
3.3055 5.2690 -2.3759 0.9737
3.2731 5.2891 -2.3758 0.9737
3.2405 5.3089 -2.3758 0.9737
3.2079 5.3286 -2.3758 0.9737
3.1751 5.3481 -2.3757 0.9737
3.1421 5.3674 -2.3757 0.9737
3.0760 5.4054 -2.3756 0.9737
3.0427 5.4241 -2.3756 0.9737
3.0093 5.4425 -2.3755 0.9737
2.9758 5.4608 -2.3755 0.9737
2.9422 5.4789 -2.3755 0.9737
2.9085 5.4968 -2.3754 0.9737
2.8747 5.5144 -2.3754 0.9737
2.8408 5.5319 -2.3754 0.9737
2.8068 5.5491 -2.3753 0.9737
2.7727 5.5662 -2.3753 0.9737
2.7384 5.5830 -2.3753 0.9737
2.7041 5.5996 -2.3753 0.9737
2.6696 5.6161 -2.3752 0.9737
2.6005 5.6483 -2.3752 0.9737
2.5658 5.6641 -2.3752 0.9737
2.5310 5.6796 -2.3751 0.9737
2.4961 5.6950 -2.3751 0.9737
2.4610 5.7102 -2.3751 0.9737
2.4259 5.7251 -2.3751 0.9737
2.3908 5.7398 -2.3750 0.9737
2.3555 5.7543 -2.3750 0.9737
2.3201 5.7686 -2.3750 0.9737
2.2847 5.7827 -2.3750 0.9737
2.2135 5.8102 -2.3750 0.9737
2.1779 5.8237 -2.3749 0.9737
2.1421 5.8370 -2.3749 0.9737
2.1062 5.8499 -2.3749 0.9737
2.0703 5.8627 -2.3749 0.9737
2.0342 5.8752 -2.3749 0.9737
1.9982 5.8876 -2.3749 0.9737
1.9620 5.8998 -2.3749 0.9737
1.9258 5.9116 -2.3749 0.9737
1.8895 5.9234 -2.3749 0.9737
1.8531 5.9348 -2.3749 0.9737
1.8167 5.9460 -2.3749 0.9737
1.7801 5.9571 -2.3749 0.9737
1.7436 5.9678 -2.3749 0.9737
1.7069 5.9784 -2.3748 0.9737
1.6702 5.9888 -2.3748 0.9737
1.6334 5.9989 -2.3748 0.9737
1.5966 6.0088 -2.3748 0.9737
1.5597 6.0185 -2.3749 0.9737
1.5228 6.0280 -2.3749 0.9737
1.4857 6.0372 -2.3749 0.9737
1.4487 6.0462 -2.3749 0.9737
1.4116 6.0550 -2.3749 0.9737
1.3744 6.0635 -2.3749 0.9737
1.3372 6.0719 -2.3749 0.9737
1.2627 6.0879 -2.3749 0.9737
1.2253 6.0955 -2.3749 0.9737
1.1879 6.1030 -2.3749 0.9737
1.1504 6.1102 -2.3749 0.9737
1.1129 6.1172 -2.3749 0.9737
1.0754 6.1239 -2.3750 0.9737
1.0378 6.1304 -2.3750 0.9737
1.0002 6.1367 -2.3750 0.9737
0.9625 6.1428 -2.3750 0.9737
0.9248 6.1486 -2.3750 0.9737
0.8871 6.1541 -2.3750 0.9737
0.8493 6.1596 -2.3750 0.9737
0.8115 6.1648 -2.3751 0.9737
0.7737 6.1696 -2.3751 0.9737
0.7359 6.1743 -2.3751 0.9737
0.6980 6.1788 -2.3751 0.9737
0.6601 6.1830 -2.3752 0.9737
0.6221 6.1870 -2.3752 0.9737
0.5841 6.1907 -2.3752 0.9737
0.5462 6.1943 -2.3752 0.9737
0.5082 6.1976 -2.3753 0.9737
0.4702 6.2007 -2.3753 0.9737
0.3941 6.2061 -2.3753 0.9737
0.3560 6.2085 -2.3754 0.9737
0.3179 6.2107 -2.3754 0.9737
0.2798 6.2126 -2.3754 0.9737
0.2036 6.2157 -2.3755 0.9737
0.1654 6.2169 -2.3755 0.9737
0.1273 6.2179 -2.3756 0.9737
0.0891 6.2187 -2.3756 0.9737
0.0510 6.2192 -2.3756 0.9737
0.0128 6.2195 -2.3757 0.9737
-0.0253 6.2195 -2.3757 0.9737
-0.0634 6.2194 -2.3758 0.9737
-0.1397 6.2183 -2.3758 0.9737
-0.1779 6.2175 -2.3759 0.9737
-0.2160 6.2164 -2.3759 0.9737
-0.2542 6.2151 -2.3760 0.9737
-0.2923 6.2135 -2.3760 0.9737
-0.3685 6.2097 -2.3761 0.9737
-0.4066 6.2075 -2.3762 0.9737
-0.4828 6.2023 -2.3763 0.9737
-0.5208 6.1993 -2.3763 0.9737
-0.5588 6.1961 -2.3764 0.9737
-0.6728 6.1852 -2.3765 0.9737
-0.7108 6.1811 -2.3766 0.9737
-0.7487 6.1768 -2.3766 0.9737
-0.7866 6.1722 -2.3767 0.9737
-0.8244 6.1674 -2.3767 0.9737
-0.8622 6.1624 -2.3768 0.9737
-0.9001 6.1571 -2.3769 0.9737
-0.9378 6.1516 -2.3769 0.9737
-0.9756 6.1460 -2.3770 0.9737
-1.0133 6.1400 -2.3770 0.9737
-1.0510 6.1338 -2.3771 0.9737
-1.0886 6.1274 -2.3772 0.9737
-1.1262 6.1208 -2.3772 0.9737
-1.2013 6.1068 -2.3774 0.9737
-1.2762 6.0920 -2.3775 0.9737
-1.3136 6.0843 -2.3776 0.9737
-1.3509 6.0763 -2.3776 0.9737
-1.3882 6.0680 -2.3777 0.9737
-1.4254 6.0596 -2.3778 0.9737
-1.4626 6.0509 -2.3778 0.9737
-1.4997 6.0420 -2.3779 0.9737
-1.5368 6.0328 -2.3780 0.9737
-1.5739 6.0235 -2.3780 0.9737
-1.6108 6.0139 -2.3781 0.9737
-1.6478 6.0041 -2.3782 0.9737
-1.6846 5.9941 -2.3783 0.9737
-1.7214 5.9838 -2.3784 0.9737
-1.7581 5.9734 -2.3784 0.9737
-1.7948 5.9627 -2.3785 0.9737
-1.8314 5.9518 -2.3786 0.9737
-1.8679 5.9405 -2.3787 0.9737
-1.9044 5.9292 -2.3787 0.9737
-1.9408 5.9176 -2.3788 0.9737
-1.9771 5.9059 -2.3789 0.9737
-2.0134 5.8937 -2.3790 0.9737
-2.0496 5.8815 -2.3791 0.9737
-2.0857 5.8690 -2.3792 0.9737
-2.1217 5.8563 -2.3792 0.9737
-2.1577 5.8434 -2.3793 0.9737
-2.1936 5.8303 -2.3794 0.9737
-2.2294 5.8169 -2.3795 0.9737
-2.2651 5.8034 -2.3796 0.9737
-2.3007 5.7895 -2.3797 0.9737
-2.3363 5.7755 -2.3798 0.9737
-2.3718 5.7613 -2.3799 0.9737
-2.4072 5.7469 -2.3799 0.9737
-2.4425 5.7323 -2.3800 0.9737
-2.5128 5.7023 -2.3802 0.9737
-2.5479 5.6870 -2.3803 0.9737
-2.5828 5.6714 -2.3804 0.9737
-2.6176 5.6557 -2.3805 0.9737
-2.6524 5.6398 -2.3806 0.9737
-2.6871 5.6237 -2.3807 0.9737
-2.7216 5.6073 -2.3808 0.9737
-2.7561 5.5907 -2.3809 0.9737
-2.7904 5.5740 -2.3810 0.9737
-2.8247 5.5570 -2.3811 0.9737
-2.8588 5.5398 -2.3812 0.9737
-2.8929 5.5224 -2.3813 0.9737
-2.9269 5.5047 -2.3814 0.9737
-2.9607 5.4870 -2.3815 0.9737
-3.0280 5.4506 -2.3817 0.9737
-3.0615 5.4322 -2.3818 0.9737
-3.0950 5.4136 -2.3819 0.9737
-3.1282 5.3948 -2.3820 0.9737
-3.1614 5.3757 -2.3821 0.9736
-3.1945 5.3564 -2.3822 0.9736
-3.2274 5.3370 -2.3823 0.9736
-3.2602 5.3173 -2.3824 0.9736
-3.2929 5.2975 -2.3825 0.9736
-3.3255 5.2774 -2.3827 0.9736
-3.3580 5.2571 -2.3828 0.9736
-3.3903 5.2367 -2.3829 0.9736
-3.4225 5.2160 -2.3830 0.9736
-3.4546 5.1952 -2.3831 0.9736
-3.4866 5.1741 -2.3832 0.9736
-3.5185 5.1529 -2.3833 0.9736
-3.5502 5.1314 -2.3834 0.9736
-3.5817 5.1098 -2.3835 0.9736
-3.6445 5.0659 -2.3838 0.9736
-3.6757 5.0437 -2.3839 0.9736
-3.7068 5.0214 -2.3840 0.9736
-3.7377 4.9987 -2.3841 0.9736
-3.7685 4.9761 -2.3842 0.9736
-3.7991 4.9530 -2.3844 0.9736
-3.8296 4.9299 -2.3845 0.9736
-3.8599 4.9065 -2.3846 0.9736
-3.8902 4.8830 -2.3847 0.9736
-3.9203 4.8593 -2.3848 0.9736
-3.9800 4.8113 -2.3851 0.9736
-4.0096 4.7871 -2.3852 0.9736
-4.0391 4.7626 -2.3853 0.9736
-4.0685 4.7380 -2.3854 0.9736
-4.0977 4.7132 -2.3856 0.9736
-4.1267 4.6882 -2.3857 0.9736
-4.1556 4.6630 -2.3858 0.9736
-4.1843 4.6377 -2.3859 0.9736
-4.2130 4.6122 -2.3861 0.9736
-4.2571 4.6036 -2.3951 0.9735
-4.3173 4.6116 -2.4130 0.9733
-4.3876 4.6294 -2.4363 0.9731
-4.4593 4.6476 -2.4602 0.9728
-4.5323 4.6661 -2.4847 0.9725
-4.5695 4.6469 -2.4894 0.9725
-4.5981 4.6191 -2.4895 0.9725
-4.6266 4.5910 -2.4897 0.9725
-4.6550 4.5628 -2.4898 0.9725
-4.6831 4.5344 -2.4899 0.9725
-4.7111 4.5059 -2.4901 0.9725
-4.7389 4.4771 -2.4902 0.9725
-4.7666 4.4482 -2.4903 0.9725
-4.7940 4.4191 -2.4905 0.9725
-4.8213 4.3899 -2.4906 0.9725
-4.8484 4.3605 -2.4908 0.9725
-4.8753 4.3309 -2.4909 0.9725
-4.9021 4.3011 -2.4910 0.9725
-4.9287 4.2712 -2.4912 0.9725
-4.9551 4.2411 -2.4913 0.9725
-4.9812 4.2109 -2.4915 0.9725
-5.0073 4.1805 -2.4916 0.9725
-5.0331 4.1500 -2.4917 0.9725
-5.0587 4.1192 -2.4919 0.9725
-5.0842 4.0883 -2.4920 0.9725
-5.1095 4.0573 -2.4922 0.9724
-5.1346 4.0261 -2.4923 0.9724
-5.1595 3.9948 -2.4925 0.9724
-5.1842 3.9633 -2.4926 0.9724
-5.2330 3.8998 -2.4929 0.9724
-5.2572 3.8679 -2.4930 0.9724
-5.2811 3.8358 -2.4932 0.9724
-5.3049 3.8035 -2.4933 0.9724
-5.3284 3.7712 -2.4935 0.9724
-5.3749 3.7060 -2.4938 0.9724
-5.3978 3.6731 -2.4939 0.9724
-5.4206 3.6402 -2.4941 0.9724
-5.4431 3.6070 -2.4942 0.9724
-5.4655 3.5738 -2.4944 0.9724
-5.4876 3.5404 -2.4945 0.9724
-5.5096 3.5068 -2.4947 0.9724
-5.5528 3.4395 -2.4949 0.9724
-5.5953 3.3715 -2.4952 0.9724
-5.6162 3.3372 -2.4954 0.9724
-5.6574 3.2685 -2.4957 0.9724
-5.6777 3.2339 -2.4959 0.9724
-5.6978 3.1992 -2.4960 0.9724
-5.7177 3.1644 -2.4962 0.9724
-5.7373 3.1295 -2.4963 0.9724
-5.7567 3.0945 -2.4965 0.9724
-5.7760 3.0593 -2.4966 0.9724
-5.7950 3.0239 -2.4968 0.9724
-5.8138 2.9885 -2.4969 0.9724
-5.8324 2.9530 -2.4971 0.9724
-5.8507 2.9173 -2.4972 0.9724
-5.8689 2.8816 -2.4974 0.9724
-5.8868 2.8457 -2.4975 0.9724
-5.9045 2.8097 -2.4977 0.9724
-5.9220 2.7736 -2.4978 0.9724
-5.9393 2.7374 -2.4980 0.9724
-5.9563 2.7011 -2.4981 0.9724
-5.9731 2.6646 -2.4983 0.9724
-5.9897 2.6280 -2.4985 0.9724
-6.0061 2.5914 -2.4986 0.9724
-6.0223 2.5548 -2.4988 0.9724
-6.0382 2.5179 -2.4989 0.9724
-6.0539 2.4809 -2.4991 0.9724
-6.0694 2.4439 -2.4992 0.9724
-6.0846 2.4067 -2.4994 0.9724
-6.0997 2.3696 -2.4995 0.9724
-6.1145 2.3323 -2.4997 0.9724
-6.1434 2.2573 -2.5000 0.9724
-6.1575 2.2197 -2.5002 0.9724
-6.1851 2.1443 -2.5005 0.9724
-6.2117 2.0685 -2.5008 0.9724
-6.2246 2.0305 -2.5009 0.9724
-6.2373 1.9924 -2.5011 0.9724
-6.2498 1.9542 -2.5013 0.9724
-6.2621 1.9160 -2.5014 0.9723
-6.2741 1.8777 -2.5016 0.9723
-6.2859 1.8393 -2.5017 0.9723
-6.2975 1.8008 -2.5019 0.9723
-6.3088 1.7622 -2.5020 0.9723
-6.3413 1.6461 -2.5025 0.9723
-6.3517 1.6073 -2.5027 0.9723
-6.3619 1.5684 -2.5028 0.9723
-6.3718 1.5294 -2.5030 0.9723
-6.3909 1.4513 -2.5033 0.9723
-6.4000 1.4121 -2.5034 0.9723
-6.4177 1.3337 -2.5038 0.9723
4.7008 -4.2594 -2.5134 0.9731
4.7266 -4.2303 -2.5133 0.9731
4.7522 -4.2009 -2.5131 0.9731
4.7776 -4.1715 -2.5130 0.9731
4.8028 -4.1419 -2.5128 0.9731
4.8279 -4.1122 -2.5127 0.9731
4.8528 -4.0822 -2.5126 0.9731
4.8774 -4.0522 -2.5124 0.9731
4.9019 -4.0220 -2.5123 0.9731
4.9262 -3.9916 -2.5122 0.9731
4.9504 -3.9611 -2.5120 0.9731
4.9743 -3.9304 -2.5119 0.9731
5.0216 -3.8687 -2.5116 0.9731
5.0449 -3.8376 -2.5115 0.9731
5.0681 -3.8063 -2.5113 0.9731
5.0911 -3.7750 -2.5112 0.9731
5.1138 -3.7434 -2.5110 0.9731
5.1364 -3.7118 -2.5109 0.9731
5.1588 -3.6800 -2.5107 0.9731
5.1810 -3.6481 -2.5106 0.9731
5.2029 -3.6160 -2.5105 0.9731
5.2247 -3.5838 -2.5103 0.9731
5.2463 -3.5516 -2.5102 0.9731
5.2677 -3.5191 -2.5100 0.9731
5.2889 -3.4865 -2.5099 0.9731
5.3098 -3.4537 -2.5097 0.9731
5.3306 -3.4209 -2.5096 0.9731
5.3512 -3.3880 -2.5094 0.9731
5.3716 -3.3549 -2.5093 0.9731
5.3917 -3.3217 -2.5092 0.9731
5.4117 -3.2884 -2.5090 0.9731
5.4315 -3.2549 -2.5089 0.9731
5.4510 -3.2213 -2.5087 0.9731
5.4704 -3.1877 -2.5086 0.9731
5.4895 -3.1539 -2.5084 0.9731
5.5084 -3.1199 -2.5083 0.9731
5.5271 -3.0859 -2.5081 0.9731
5.5639 -3.0175 -2.5078 0.9731
5.5998 -2.9487 -2.5075 0.9731
5.6175 -2.9141 -2.5074 0.9731
5.6349 -2.8794 -2.5072 0.9731
5.6521 -2.8446 -2.5071 0.9731
5.7189 -2.7045 -2.5065 0.9731
5.7509 -2.6337 -2.5062 0.9732
5.7666 -2.5983 -2.5060 0.9732
5.7974 -2.5270 -2.5057 0.9732
5.8124 -2.4913 -2.5056 0.9732
5.8273 -2.4554 -2.5054 0.9732
5.8419 -2.4195 -2.5053 0.9732
5.8562 -2.3834 -2.5051 0.9732
5.8704 -2.3473 -2.5050 0.9732
5.8843 -2.3112 -2.5048 0.9732
5.8981 -2.2749 -2.5047 0.9732
5.9115 -2.2385 -2.5045 0.9732
5.9248 -2.2021 -2.5044 0.9732
5.9378 -2.1655 -2.5042 0.9732
5.9506 -2.1290 -2.5041 0.9732
5.9633 -2.0923 -2.5039 0.9732
5.9756 -2.0556 -2.5038 0.9732
5.9878 -2.0187 -2.5036 0.9732
5.9996 -1.9819 -2.5035 0.9732
6.0113 -1.9449 -2.5033 0.9732
6.0228 -1.9079 -2.5032 0.9732
6.0340 -1.8708 -2.5030 0.9732
6.0450 -1.8336 -2.5029 0.9732
6.0663 -1.7591 -2.5026 0.9732
6.0766 -1.7218 -2.5024 0.9732
6.0867 -1.6844 -2.5023 0.9732
6.0966 -1.6469 -2.5021 0.9732
6.1062 -1.6093 -2.5020 0.9732
6.1156 -1.5718 -2.5018 0.9732
6.1247 -1.5341 -2.5017 0.9732
6.1336 -1.4964 -2.5015 0.9732
6.1424 -1.4588 -2.5014 0.9732
6.1508 -1.4209 -2.5012 0.9732
6.1590 -1.3830 -2.5011 0.9732
6.1671 -1.3452 -2.5009 0.9732
6.1748 -1.3072 -2.5008 0.9732
6.1823 -1.2693 -2.5006 0.9732
6.1896 -1.2312 -2.5005 0.9732
6.2035 -1.1550 -2.5002 0.9732
6.2101 -1.1169 -2.5000 0.9732
6.2165 -1.0788 -2.4999 0.9732
6.2226 -1.0406 -2.4997 0.9732
6.2341 -0.9640 -2.4994 0.9732
6.2396 -0.9257 -2.4993 0.9732
6.2448 -0.8873 -2.4991 0.9732
6.2497 -0.8490 -2.4990 0.9732
6.2544 -0.8106 -2.4988 0.9732
6.2589 -0.7721 -2.4987 0.9732
6.2632 -0.7337 -2.4985 0.9732
6.2671 -0.6952 -2.4984 0.9732
6.2709 -0.6567 -2.4982 0.9732
6.2745 -0.6182 -2.4981 0.9732
6.2778 -0.5797 -2.4979 0.9732
6.2808 -0.5411 -2.4978 0.9732
6.2837 -0.5025 -2.4976 0.9732
6.2862 -0.4639 -2.4975 0.9732
6.2907 -0.3868 -2.4972 0.9732
6.2926 -0.3482 -2.4970 0.9732
6.2943 -0.3095 -2.4969 0.9733
6.2957 -0.2709 -2.4967 0.9733
6.2969 -0.2322 -2.4966 0.9733
6.2978 -0.1936 -2.4965 0.9733
6.2985 -0.1550 -2.4963 0.9733
6.2990 -0.1163 -2.4962 0.9733
6.2992 -0.0777 -2.4960 0.9733
6.2992 -0.0390 -2.4959 0.9733
6.2989 -0.0004 -2.4957 0.9733
6.2985 0.0383 -2.4956 0.9733
6.2977 0.0769 -2.4954 0.9733
6.2968 0.1155 -2.4953 0.9733
6.2942 0.1927 -2.4950 0.9733
6.2925 0.2314 -2.4949 0.9733
6.2906 0.2699 -2.4947 0.9733
6.2885 0.3084 -2.4946 0.9733
6.2861 0.3470 -2.4944 0.9733
6.2835 0.3855 -2.4943 0.9733
6.2806 0.4241 -2.4941 0.9733
6.2775 0.4626 -2.4940 0.9733
6.2742 0.5011 -2.4939 0.9733
6.2707 0.5395 -2.4937 0.9733
6.2669 0.5779 -2.4936 0.9733
6.2629 0.6163 -2.4934 0.9733
6.2587 0.6547 -2.4933 0.9733
6.2495 0.7313 -2.4930 0.9733
6.2445 0.7696 -2.4929 0.9733
6.2393 0.8079 -2.4927 0.9733
6.2282 0.8842 -2.4925 0.9733
6.2224 0.9223 -2.4923 0.9733
6.2162 0.9605 -2.4922 0.9733
6.2099 0.9986 -2.4921 0.9733
6.2033 1.0366 -2.4919 0.9733
6.1965 1.0746 -2.4918 0.9733
6.1895 1.1125 -2.4916 0.9733
6.1822 1.1504 -2.4915 0.9733
6.1747 1.1882 -2.4914 0.9733
6.1669 1.2260 -2.4912 0.9733
6.1590 1.2637 -2.4911 0.9733
6.1508 1.3014 -2.4910 0.9733
6.1423 1.3390 -2.4908 0.9733
6.1337 1.3766 -2.4907 0.9733
6.1248 1.4141 -2.4906 0.9733
6.1157 1.4516 -2.4904 0.9733
6.1064 1.4891 -2.4903 0.9733
6.0870 1.5637 -2.4901 0.9733
6.0769 1.6009 -2.4899 0.9733
6.0667 1.6380 -2.4898 0.9733
6.0563 1.6752 -2.4897 0.9733
6.0455 1.7122 -2.4895 0.9733
6.0346 1.7492 -2.4894 0.9733
6.0234 1.7861 -2.4893 0.9733
6.0121 1.8228 -2.4892 0.9733
6.0005 1.8596 -2.4890 0.9733
5.9887 1.8963 -2.4889 0.9733
5.9766 1.9329 -2.4888 0.9733
5.9518 2.0059 -2.4885 0.9733
5.9392 2.0423 -2.4884 0.9733
5.9079 2.0722 -2.4806 0.9734
5.8405 2.0889 -2.4576 0.9737
5.7744 2.1052 -2.4352 0.9739
5.7094 2.1212 -2.4133 0.9741
5.6553 2.1407 -2.3959 0.9743
5.6169 2.1657 -2.3852 0.9744
5.6032 2.2000 -2.3851 0.9744
5.5893 2.2342 -2.3850 0.9744
5.5753 2.2684 -2.3848 0.9744
5.5610 2.3024 -2.3847 0.9744
5.5465 2.3364 -2.3846 0.9744
5.5318 2.3702 -2.3845 0.9744
5.5169 2.4040 -2.3844 0.9744
5.5018 2.4377 -2.3843 0.9744
5.4865 2.4713 -2.3842 0.9744
5.4710 2.5048 -2.3841 0.9744
5.4552 2.5381 -2.3839 0.9744
5.4393 2.5714 -2.3838 0.9744
5.4232 2.6047 -2.3837 0.9744
5.3904 2.6708 -2.3835 0.9744
5.3737 2.7036 -2.3834 0.9745
5.3567 2.7364 -2.3833 0.9745
5.3396 2.7692 -2.3832 0.9745
5.3047 2.8342 -2.3830 0.9745
5.2870 2.8666 -2.3829 0.9745
5.2691 2.8988 -2.3828 0.9745
5.2510 2.9310 -2.3827 0.9745
5.2327 2.9630 -2.3826 0.9745
5.2142 2.9949 -2.3825 0.9745
5.1955 3.0267 -2.3824 0.9745
5.1767 3.0584 -2.3823 0.9745
5.1576 3.0900 -2.3822 0.9745
5.1383 3.1214 -2.3821 0.9745
5.1189 3.1527 -2.3820 0.9745
5.0992 3.1840 -2.3819 0.9745
5.0593 3.2461 -2.3817 0.9745
5.0391 3.2768 -2.3816 0.9745
5.0187 3.3076 -2.3815 0.9745
4.9981 3.3381 -2.3814 0.9745
4.9774 3.3687 -2.3813 0.9745
4.9564 3.3990 -2.3812 0.9745
4.9353 3.4292 -2.3811 0.9745
4.9140 3.4593 -2.3810 0.9745
4.8925 3.4892 -2.3809 0.9745
4.8489 3.5487 -2.3808 0.9745
4.8269 3.5782 -2.3807 0.9745
4.8047 3.6077 -2.3806 0.9745
4.7823 3.6369 -2.3805 0.9745
4.7597 3.6661 -2.3804 0.9745
4.7370 3.6951 -2.3803 0.9745
4.7140 3.7239 -2.3802 0.9745
4.6910 3.7526 -2.3802 0.9745
4.6677 3.7812 -2.3801 0.9745
4.6443 3.8096 -2.3800 0.9745
4.6206 3.8379 -2.3799 0.9745
4.5968 3.8661 -2.3798 0.9745
4.5729 3.8940 -2.3798 0.9745
4.5487 3.9219 -2.3797 0.9745
4.5244 3.9496 -2.3796 0.9745
4.5000 3.9771 -2.3795 0.9745
4.4754 4.0046 -2.3794 0.9745
4.4505 4.0317 -2.3794 0.9745
4.4256 4.0589 -2.3793 0.9745
4.3497 4.1392 -2.3791 0.9745
4.3242 4.1657 -2.3790 0.9745
4.2984 4.1920 -2.3789 0.9745
4.2725 4.2182 -2.3788 0.9745
4.2464 4.2442 -2.3788 0.9745
4.2201 4.2700 -2.3787 0.9745
4.1937 4.2957 -2.3786 0.9745
4.1672 4.3212 -2.3786 0.9745
4.1405 4.3466 -2.3785 0.9745
4.1136 4.3718 -2.3784 0.9745
4.0866 4.3968 -2.3784 0.9745
4.0321 4.4464 -2.3782 0.9745
4.0047 4.4709 -2.3782 0.9745
3.9771 4.4953 -2.3781 0.9745
3.9494 4.5195 -2.3780 0.9745
3.8934 4.5673 -2.3779 0.9745
3.8652 4.5910 -2.3779 0.9745
3.8369 4.6145 -2.3778 0.9745
3.8084 4.6379 -2.3777 0.9745
3.7798 4.6610 -2.3777 0.9745
3.7510 4.6840 -2.3776 0.9745
3.7221 4.7068 -2.3776 0.9745
3.6931 4.7295 -2.3775 0.9745
3.6639 4.7520 -2.3775 0.9745
3.6346 4.7742 -2.3774 0.9745
3.5756 4.8182 -2.3773 0.9745
3.5459 4.8400 -2.3772 0.9745
3.5161 4.8616 -2.3772 0.9745
3.4861 4.8829 -2.3771 0.9745
3.4561 4.9041 -2.3771 0.9745
3.4258 4.9251 -2.3770 0.9745
3.3955 4.9459 -2.3770 0.9745
3.3650 4.9665 -2.3770 0.9745
3.3344 4.9870 -2.3769 0.9745
3.3037 5.0073 -2.3769 0.9745
3.2729 5.0273 -2.3768 0.9745
3.2419 5.0472 -2.3768 0.9745
3.2108 5.0670 -2.3767 0.9745
3.1796 5.0865 -2.3767 0.9745
3.1483 5.1058 -2.3767 0.9745
3.1169 5.1249 -2.3766 0.9745
3.0853 5.1438 -2.3766 0.9745
3.0537 5.1626 -2.3765 0.9745
3.0219 5.1812 -2.3765 0.9745
2.9900 5.1995 -2.3765 0.9745
2.9580 5.2177 -2.3764 0.9745
2.9259 5.2356 -2.3764 0.9745
2.8937 5.2534 -2.3764 0.9745
2.8614 5.2710 -2.3763 0.9745
2.8290 5.2884 -2.3763 0.9745
2.7964 5.3056 -2.3763 0.9745
2.7638 5.3225 -2.3762 0.9745
2.7311 5.3394 -2.3762 0.9745
2.6982 5.3559 -2.3762 0.9745
2.6653 5.3723 -2.3761 0.9745
2.6322 5.3885 -2.3761 0.9745
2.5992 5.4045 -2.3761 0.9745
2.5659 5.4203 -2.3761 0.9745
2.5326 5.4359 -2.3760 0.9745
2.4992 5.4512 -2.3760 0.9745
2.4657 5.4664 -2.3760 0.9745
2.4321 5.4814 -2.3760 0.9745
2.3646 5.5107 -2.3759 0.9745
2.3307 5.5250 -2.3759 0.9745
2.2627 5.5531 -2.3759 0.9745
2.2286 5.5669 -2.3759 0.9745
2.1944 5.5804 -2.3758 0.9745
2.1601 5.5938 -2.3758 0.9745
2.1257 5.6069 -2.3758 0.9745
2.0913 5.6198 -2.3758 0.9745
2.0568 5.6325 -2.3758 0.9745
2.0221 5.6449 -2.3758 0.9745
1.9875 5.6573 -2.3758 0.9745
1.9527 5.6693 -2.3758 0.9745
1.9179 5.6811 -2.3758 0.9745
1.8830 5.6928 -2.3757 0.9745
1.8480 5.7041 -2.3757 0.9745
1.8130 5.7154 -2.3757 0.9745
1.7075 5.7478 -2.3757 0.9745
1.6014 5.7782 -2.3757 0.9745
1.5660 5.7879 -2.3757 0.9745
1.5305 5.7974 -2.3757 0.9745
1.4949 5.8067 -2.3757 0.9745
1.4592 5.8158 -2.3757 0.9745
1.4235 5.8247 -2.3757 0.9745
1.3878 5.8333 -2.3757 0.9745
1.3520 5.8417 -2.3757 0.9745
1.3161 5.8499 -2.3757 0.9745
1.2802 5.8578 -2.3757 0.9745
1.2443 5.8656 -2.3757 0.9745
1.1722 5.8805 -2.3758 0.9745
1.1361 5.8875 -2.3758 0.9745
1.1000 5.8945 -2.3758 0.9745
1.0638 5.9011 -2.3758 0.9745
1.0276 5.9076 -2.3758 0.9745
0.9913 5.9138 -2.3758 0.9745
0.9550 5.9198 -2.3758 0.9745
0.9187 5.9257 -2.3759 0.9745
0.8460 5.9365 -2.3759 0.9745
0.8095 5.9416 -2.3759 0.9745
0.7731 5.9465 -2.3759 0.9745
0.7366 5.9512 -2.3759 0.9745
0.7001 5.9557 -2.3760 0.9745
0.6635 5.9599 -2.3760 0.9745
0.6270 5.9639 -2.3760 0.9745
0.5904 5.9677 -2.3760 0.9745
0.5537 5.9713 -2.3761 0.9745
0.5171 5.9747 -2.3761 0.9745
0.4805 5.9777 -2.3761 0.9745
0.4438 5.9807 -2.3761 0.9745
0.4071 5.9833 -2.3762 0.9745
0.3704 5.9858 -2.3762 0.9745
0.3337 5.9880 -2.3762 0.9745
0.2969 5.9900 -2.3763 0.9745
0.2602 5.9918 -2.3763 0.9745
0.2234 5.9934 -2.3763 0.9745
0.1499 5.9959 -2.3764 0.9745
0.1131 5.9968 -2.3764 0.9745
0.0763 5.9975 -2.3765 0.9745
0.0395 5.9979 -2.3765 0.9745
0.0028 5.9981 -2.3765 0.9745
-0.0340 5.9980 -2.3766 0.9745
-0.0708 5.9978 -2.3766 0.9745
-0.1076 5.9974 -2.3766 0.9745
-0.1444 5.9968 -2.3767 0.9745
-0.1812 5.9959 -2.3767 0.9745
-0.2180 5.9947 -2.3768 0.9745
-0.2548 5.9934 -2.3768 0.9745
-0.3283 5.9900 -2.3769 0.9745
-0.3650 5.9880 -2.3769 0.9745
-0.4017 5.9858 -2.3770 0.9745
-0.4385 5.9833 -2.3770 0.9745
-0.4752 5.9807 -2.3771 0.9745
-0.5119 5.9777 -2.3771 0.9745
-0.5486 5.9746 -2.3772 0.9745
-0.5852 5.9713 -2.3772 0.9745
-0.6584 5.9639 -2.3773 0.9745
-0.6950 5.9599 -2.3774 0.9745
-0.7316 5.9556 -2.3774 0.9745
-0.7681 5.9511 -2.3775 0.9745
-0.8046 5.9465 -2.3775 0.9745
-0.8411 5.9416 -2.3776 0.9745
-0.8776 5.9365 -2.3777 0.9745
-0.9140 5.9311 -2.3777 0.9745
-0.9504 5.9255 -2.3778 0.9745
-0.9868 5.9197 -2.3778 0.9745
-1.0231 5.9137 -2.3779 0.9745
-1.0593 5.9075 -2.3780 0.9745
-1.1318 5.8944 -2.3781 0.9745
-1.1680 5.8875 -2.3781 0.9745
-1.2041 5.8804 -2.3782 0.9745
-1.2402 5.8730 -2.3783 0.9745
-1.2762 5.8655 -2.3783 0.9745
-1.3122 5.8577 -2.3784 0.9745
-1.3481 5.8497 -2.3785 0.9745
-1.3840 5.8414 -2.3785 0.9745
-1.4199 5.8330 -2.3786 0.9745
-1.4557 5.8244 -2.3787 0.9745
-1.4914 5.8155 -2.3787 0.9745
-1.5271 5.8064 -2.3788 0.9745
-1.5628 5.7972 -2.3789 0.9745
-1.5984 5.7876 -2.3790 0.9745
-1.6339 5.7779 -2.3790 0.9745
-1.6693 5.7679 -2.3791 0.9745
-1.7047 5.7577 -2.3792 0.9745
-1.7401 5.7473 -2.3793 0.9745
-1.7754 5.7367 -2.3793 0.9745
-1.8106 5.7259 -2.3794 0.9745
-1.8457 5.7150 -2.3795 0.9745
-1.8808 5.7036 -2.3796 0.9745
-1.9508 5.6805 -2.3797 0.9745
-1.9856 5.6687 -2.3798 0.9745
-2.0205 5.6566 -2.3799 0.9745
-2.0552 5.6442 -2.3800 0.9745
-2.0898 5.6317 -2.3801 0.9745
-2.1244 5.6191 -2.3801 0.9745
-2.1589 5.6061 -2.3802 0.9745
-2.1934 5.5929 -2.3803 0.9745
-2.2277 5.5796 -2.3804 0.9745
-2.2620 5.5660 -2.3805 0.9745
-2.2962 5.5523 -2.3806 0.9745
-2.3303 5.5382 -2.3807 0.9745
-2.3643 5.5241 -2.3807 0.9745
-2.3982 5.5096 -2.3808 0.9745
-2.4321 5.4950 -2.3809 0.9745
-2.4658 5.4802 -2.3810 0.9745
-2.4995 5.4652 -2.3811 0.9745
-2.5330 5.4500 -2.3812 0.9745
-2.5665 5.4346 -2.3813 0.9745
-2.5999 5.4189 -2.3814 0.9745
-2.6332 5.4030 -2.3815 0.9745
-2.6664 5.3870 -2.3816 0.9745
-2.6995 5.3708 -2.3817 0.9745
-2.7325 5.3544 -2.3818 0.9745
-2.7654 5.3377 -2.3819 0.9745
-2.7983 5.3209 -2.3820 0.9745
-2.8309 5.3038 -2.3820 0.9745
-2.8635 5.2866 -2.3821 0.9745
-2.9284 5.2515 -2.3823 0.9745
-2.9607 5.2336 -2.3824 0.9745
-2.9929 5.2156 -2.3825 0.9745
-3.0250 5.1973 -2.3826 0.9745
-3.0569 5.1789 -2.3828 0.9745
-3.0888 5.1603 -2.3829 0.9745
-3.1521 5.1224 -2.3831 0.9745
-3.1836 5.1032 -2.3832 0.9745
-3.2150 5.0838 -2.3833 0.9745
-3.2463 5.0642 -2.3834 0.9745
-3.3085 5.0245 -2.3836 0.9744
-3.3394 5.0043 -2.3837 0.9744
-3.3701 4.9839 -2.3838 0.9744
-3.4008 4.9634 -2.3839 0.9744
-3.4313 4.9427 -2.3840 0.9744
-3.4618 4.9218 -2.3841 0.9744
-3.4921 4.9007 -2.3842 0.9744
-3.5222 4.8794 -2.3844 0.9744
-3.5822 4.8363 -2.3846 0.9744
-3.6119 4.8144 -2.3847 0.9744
-3.6415 4.7924 -2.3848 0.9744
-3.7004 4.7479 -2.3850 0.9744
-3.7297 4.7252 -2.3851 0.9744
-3.7588 4.7025 -2.3853 0.9744
-3.8010 4.6961 -2.3937 0.9743
-3.8166 4.6566 -2.3855 0.9744
-3.8452 4.6332 -2.3856 0.9744
-3.8738 4.6098 -2.3857 0.9744
-3.9022 4.5862 -2.3858 0.9744
-3.9304 4.5624 -2.3860 0.9744
-3.9586 4.5384 -2.3861 0.9744
-4.0076 4.5382 -2.3988 0.9743
-4.0666 4.5484 -2.4174 0.9741
-4.1321 4.5650 -2.4396 0.9739
-4.1988 4.5819 -2.4624 0.9736
-4.3013 4.5797 -2.4894 0.9733
-4.3576 4.5270 -2.4896 0.9733
-4.4133 4.4737 -2.4899 0.9733
-4.4409 4.4468 -2.4900 0.9733
-4.4683 4.4197 -2.4901 0.9733
-4.4956 4.3923 -2.4903 0.9733
-4.5496 4.3373 -2.4905 0.9733
-4.5764 4.3096 -2.4907 0.9733
-4.6030 4.2817 -2.4908 0.9733
-4.6294 4.2536 -2.4909 0.9733
-4.6556 4.2254 -2.4911 0.9733
-4.6817 4.1970 -2.4912 0.9733
-4.7076 4.1684 -2.4913 0.9733
-4.7334 4.1396 -2.4915 0.9733
-4.7589 4.1107 -2.4916 0.9733
-4.8096 4.0525 -2.4919 0.9733
-4.8346 4.0231 -2.4920 0.9733
-4.8594 3.9937 -2.4922 0.9733
-4.8841 3.9639 -2.4923 0.9733
-4.9086 3.9341 -2.4924 0.9733
-4.9329 3.9042 -2.4926 0.9733
-4.9571 3.8741 -2.4927 0.9733
-4.9810 3.8438 -2.4928 0.9733
-5.0048 3.8134 -2.4930 0.9733
-5.0283 3.7828 -2.4931 0.9733
-5.0517 3.7521 -2.4933 0.9733
-5.0979 3.6902 -2.4935 0.9733
-5.1208 3.6591 -2.4937 0.9733
-5.1434 3.6278 -2.4938 0.9733
-5.1881 3.5649 -2.4941 0.9733
-5.2102 3.5332 -2.4942 0.9733
-5.2321 3.5014 -2.4944 0.9733
-5.2538 3.4694 -2.4945 0.9733
-5.2752 3.4373 -2.4947 0.9733
-5.2965 3.4050 -2.4948 0.9733
-5.3176 3.3727 -2.4950 0.9733
-5.3385 3.3402 -2.4951 0.9733
-5.3592 3.3076 -2.4952 0.9733
-5.3797 3.2748 -2.4954 0.9733
-5.4000 3.2420 -2.4955 0.9733
-5.4201 3.2090 -2.4957 0.9733
-5.4400 3.1759 -2.4958 0.9733
-5.4597 3.1426 -2.4960 0.9733
-5.4792 3.1092 -2.4961 0.9733
-5.4985 3.0757 -2.4963 0.9733
-5.5176 3.0421 -2.4964 0.9733
-5.5365 3.0084 -2.4966 0.9733
-5.5552 2.9745 -2.4967 0.9733
-5.6099 2.8723 -2.4971 0.9732
-5.6278 2.8380 -2.4973 0.9732
-5.6454 2.8037 -2.4974 0.9732
-5.6629 2.7691 -2.4976 0.9732
-5.6800 2.7345 -2.4977 0.9732
-5.6971 2.6997 -2.4979 0.9732
-5.7139 2.6649 -2.4980 0.9732
-5.7304 2.6300 -2.4982 0.9732
-5.7468 2.5949 -2.4983 0.9732
-5.7629 2.5598 -2.4985 0.9732
-5.7789 2.5245 -2.4986 0.9732
-5.7946 2.4892 -2.4988 0.9732
-5.8102 2.4537 -2.4989 0.9732
-5.8254 2.4181 -2.4991 0.9732
-5.8405 2.3825 -2.4992 0.9732
-5.8554 2.3468 -2.4994 0.9732
-5.8700 2.3109 -2.4995 0.9732
-5.8844 2.2750 -2.4997 0.9732
-5.8986 2.2391 -2.4998 0.9732
-5.9126 2.2030 -2.5000 0.9732
-5.9263 2.1668 -2.5001 0.9732
-5.9399 2.1305 -2.5003 0.9732
-5.9532 2.0942 -2.5004 0.9732
-5.9663 2.0577 -2.5006 0.9732
-5.9918 1.9846 -2.5009 0.9732
-6.0165 1.9112 -2.5012 0.9732
-6.0284 1.8744 -2.5013 0.9732
-6.0401 1.8375 -2.5015 0.9732
-6.0517 1.8004 -2.5016 0.9732
-6.0630 1.7634 -2.5018 0.9732
-6.0740 1.7263 -2.5019 0.9732
-6.0849 1.6891 -2.5021 0.9732
-6.0955 1.6519 -2.5022 0.9732
-6.1059 1.6145 -2.5024 0.9732
-6.1160 1.5771 -2.5025 0.9732
-6.1260 1.5397 -2.5027 0.9732
-6.1357 1.5022 -2.5028 0.9732
-6.1451 1.4646 -2.5030 0.9732
-6.1544 1.4270 -2.5031 0.9732
-6.1634 1.3892 -2.5033 0.9732
-6.1807 1.3138 -2.5036 0.9732
-6.1891 1.2758 -2.5037 0.9732
-6.1971 1.2379 -2.5039 0.9732
-6.2050 1.1999 -2.5040 0.9732
-6.2126 1.1620 -2.5042 0.9732
-6.2200 1.1239 -2.5043 0.9732
-6.2271 1.0857 -2.5045 0.9732
-6.2340 1.0477 -2.5047 0.9732
-6.2407 1.0094 -2.5048 0.9732
-6.2472 0.9712 -2.5050 0.9732
-6.2534 0.9329 -2.5051 0.9732
-6.2594 0.8946 -2.5053 0.9732
-6.2651 0.8562 -2.5054 0.9732
-6.2706 0.8178 -2.5056 0.9732
-6.2759 0.7793 -2.5057 0.9732
-6.2809 0.7409 -2.5059 0.9732
-6.2903 0.6638 -2.5062 0.9732
-6.2987 0.5867 -2.5065 0.9731
-6.3026 0.5481 -2.5066 0.9731
-6.3062 0.5095 -2.5067 0.9731
-6.3096 0.4708 -2.5069 0.9731
-6.3128 0.4321 -2.5070 0.9731
-6.3156 0.3934 -2.5072 0.9731
-6.3183 0.3546 -2.5073 0.9731
-6.3207 0.3159 -2.5075 0.9731
-6.3229 0.2771 -2.5076 0.9731
-6.3249 0.2384 -2.5078 0.9731
-6.3266 0.1996 -2.5079 0.9731
-6.3281 0.1608 -2.5081 0.9731
-6.3303 0.0831 -2.5084 0.9731
-6.3311 0.0443 -2.5085 0.9731
-6.3316 0.0054 -2.5087 0.9731
-6.3319 -0.0334 -2.5088 0.9731
-6.3318 -0.1111 -2.5091 0.9731
-6.3313 -0.1500 -2.5093 0.9731
-6.3306 -0.1887 -2.5094 0.9731
-6.3286 -0.2664 -2.5097 0.9731
-6.3272 -0.3053 -2.5098 0.9731
-6.3256 -0.3441 -2.5100 0.9731
-6.3237 -0.3830 -2.5101 0.9731
-6.3216 -0.4217 -2.5103 0.9731
-6.3193 -0.4605 -2.5104 0.9731
-6.3167 -0.4993 -2.5106 0.9731
-6.3108 -0.5768 -2.5108 0.9731
-6.3075 -0.6156 -2.5110 0.9731
-6.3039 -0.6543 -2.5111 0.9731
-6.3002 -0.6930 -2.5113 0.9731
-6.2961 -0.7317 -2.5114 0.9731
-6.2919 -0.7704 -2.5116 0.9731
-6.2874 -0.8090 -2.5117 0.9731
-6.2827 -0.8475 -2.5118 0.9731
-6.2777 -0.8862 -2.5120 0.9731
-6.2725 -0.9246 -2.5121 0.9731
-6.2671 -0.9632 -2.5123 0.9731
-6.2614 -1.0017 -2.5124 0.9731
-6.2555 -1.0401 -2.5125 0.9731
-6.2493 -1.0785 -2.5127 0.9731
-6.2429 -1.1169 -2.5128 0.9731
-6.2363 -1.1552 -2.5129 0.9731
-6.2294 -1.1935 -2.5131 0.9731
-6.2223 -1.2318 -2.5132 0.9731
-6.2150 -1.2700 -2.5134 0.9731
-6.2074 -1.3082 -2.5135 0.9731
-6.1996 -1.3463 -2.5136 0.9731
-6.1833 -1.4224 -2.5139 0.9731
-6.1748 -1.4604 -2.5140 0.9731
-6.1660 -1.4984 -2.5142 0.9731
-6.1571 -1.5362 -2.5143 0.9731
-6.1478 -1.5740 -2.5144 0.9731
-6.1384 -1.6118 -2.5146 0.9731
-6.1287 -1.6495 -2.5147 0.9731
-6.1188 -1.6872 -2.5148 0.9731
-6.1086 -1.7248 -2.5150 0.9731
-6.0983 -1.7623 -2.5151 0.9731
-6.0768 -1.8372 -2.5153 0.9731
-6.0657 -1.8745 -2.5155 0.9731
-6.0544 -1.9118 -2.5156 0.9731
-6.0429 -1.9490 -2.5157 0.9731
-6.0312 -1.9861 -2.5159 0.9730
-6.0191 -2.0232 -2.5160 0.9730
-6.0069 -2.0602 -2.5161 0.9730
-5.9945 -2.0970 -2.5162 0.9730
-5.9818 -2.1339 -2.5164 0.9730
-5.9689 -2.1707 -2.5165 0.9730
-5.9557 -2.2073 -2.5166 0.9730
-5.9424 -2.2440 -2.5167 0.9730
-5.9288 -2.2805 -2.5169 0.9730
-5.9150 -2.3169 -2.5170 0.9730
-5.9010 -2.3533 -2.5171 0.9730
-5.8867 -2.3895 -2.5172 0.9730
-5.8722 -2.4257 -2.5173 0.9730
-5.8575 -2.4618 -2.5175 0.9730
-5.8426 -2.4979 -2.5176 0.9730
-5.8120 -2.5696 -2.5178 0.9730
-5.7965 -2.6053 -2.5179 0.9730
-5.7806 -2.6409 -2.5181 0.9730
-5.7646 -2.6764 -2.5182 0.9730
-5.7483 -2.7119 -2.5183 0.9730
-5.7151 -2.7825 -2.5185 0.9730
-5.6811 -2.8526 -2.5188 0.9730
-5.6637 -2.8875 -2.5189 0.9730
-5.6462 -2.9224 -2.5190 0.9730
-5.6284 -2.9571 -2.5191 0.9730
-5.6104 -2.9917 -2.5192 0.9730
-5.5922 -3.0262 -2.5193 0.9730
-5.5738 -3.0605 -2.5194 0.9730
-5.5551 -3.0948 -2.5195 0.9730
-5.5363 -3.1290 -2.5197 0.9730
-5.5172 -3.1630 -2.5198 0.9730
-5.4979 -3.1970 -2.5199 0.9730
-5.4785 -3.2308 -2.5200 0.9730
-5.4588 -3.2644 -2.5201 0.9730
-5.4389 -3.2980 -2.5202 0.9730
-5.4188 -3.3314 -2.5203 0.9730
-5.3985 -3.3648 -2.5204 0.9730
-5.3779 -3.3979 -2.5205 0.9730
-5.3363 -3.4640 -2.5207 0.9730
-5.3151 -3.4968 -2.5208 0.9730
-5.2722 -3.5620 -2.5210 0.9730
-5.2505 -3.5944 -2.5211 0.9730
-5.2286 -3.6267 -2.5212 0.9730
-5.2064 -3.6589 -2.5213 0.9730
-5.1616 -3.7228 -2.5215 0.9730
-5.1159 -3.7861 -2.5217 0.9730
-5.0928 -3.8175 -2.5218 0.9730
-5.0694 -3.8488 -2.5219 0.9730
-5.0459 -3.8800 -2.5220 0.9730
-5.0222 -3.9110 -2.5221 0.9730
-4.9983 -3.9420 -2.5222 0.9730
-4.9742 -3.9727 -2.5222 0.9730
-4.9254 -4.0337 -2.5224 0.9730
-4.9008 -4.0639 -2.5225 0.9730
-4.8759 -4.0941 -2.5226 0.9730
-4.8509 -4.1240 -2.5227 0.9730
-4.8003 -4.1835 -2.5229 0.9730
-4.7489 -4.2424 -2.5230 0.9730
-4.7229 -4.2716 -2.5231 0.9730
-4.6968 -4.3006 -2.5232 0.9730
-4.6705 -4.3295 -2.5233 0.9730
-4.6440 -4.3581 -2.5234 0.9730
-4.6173 -4.3867 -2.5234 0.9730
-4.5904 -4.4151 -2.5235 0.9730
-4.5634 -4.4434 -2.5236 0.9730
-4.5362 -4.4713 -2.5237 0.9730
-4.5088 -4.4992 -2.5238 0.9730
-4.4813 -4.5270 -2.5238 0.9730
-4.4536 -4.5545 -2.5239 0.9730
-4.4257 -4.5819 -2.5240 0.9730
-4.3976 -4.6091 -2.5241 0.9730
-4.3694 -4.6361 -2.5241 0.9730
-4.3410 -4.6629 -2.5242 0.9730
-4.3124 -4.6896 -2.5243 0.9730
-4.2837 -4.7161 -2.5243 0.9730
-4.2548 -4.7424 -2.5244 0.9730
-4.2257 -4.7686 -2.5245 0.9730
-4.1965 -4.7945 -2.5245 0.9730
-4.1376 -4.8459 -2.5247 0.9730
-4.1079 -4.8713 -2.5247 0.9730
-4.0780 -4.8966 -2.5248 0.9730
-4.0480 -4.9216 -2.5249 0.9730
-4.0179 -4.9464 -2.5249 0.9730
-3.9875 -4.9711 -2.5250 0.9730
-3.9571 -4.9956 -2.5251 0.9730
-3.9264 -5.0199 -2.5251 0.9730
-3.8957 -5.0441 -2.5252 0.9730
-3.8647 -5.0680 -2.5252 0.9730
-3.8337 -5.0917 -2.5253 0.9730
-3.8024 -5.1152 -2.5253 0.9729
-3.7396 -5.1617 -2.5255 0.9729
-3.7079 -5.1846 -2.5255 0.9729
-3.6761 -5.2075 -2.5256 0.9729
-3.6442 -5.2300 -2.5256 0.9729
-3.6121 -5.2523 -2.5257 0.9729
-3.5799 -5.2745 -2.5257 0.9729
-3.5475 -5.2964 -2.5258 0.9729
-3.4824 -5.3398 -2.5259 0.9729
-3.4497 -5.3612 -2.5259 0.9729
-3.4168 -5.3823 -2.5260 0.9729
-3.3837 -5.4033 -2.5260 0.9729
-3.3506 -5.4240 -2.5260 0.9729
-3.3173 -5.4446 -2.5261 0.9729
-3.2504 -5.4850 -2.5262 0.9729
-3.2167 -5.5050 -2.5262 0.9729
-3.1829 -5.5246 -2.5262 0.9729
-3.1490 -5.5442 -2.5263 0.9729
-3.1150 -5.5635 -2.5263 0.9729
-3.0809 -5.5825 -2.5264 0.9729
-3.0466 -5.6014 -2.5264 0.9729
-3.0122 -5.6200 -2.5264 0.9729
-2.9777 -5.6386 -2.5265 0.9729
-2.9431 -5.6568 -2.5265 0.9729
-2.9084 -5.6748 -2.5265 0.9729
-2.8736 -5.6926 -2.5266 0.9729
-2.8387 -5.7102 -2.5266 0.9729
-2.8036 -5.7275 -2.5266 0.9729
-2.7684 -5.7448 -2.5267 0.9729
-2.7332 -5.7616 -2.5267 0.9729
-2.6978 -5.7784 -2.5267 0.9729
-2.6623 -5.7948 -2.5267 0.9729
-2.6268 -5.8112 -2.5268 0.9729
-2.5911 -5.8272 -2.5268 0.9729
-2.5553 -5.8430 -2.5268 0.9729
-2.5195 -5.8587 -2.5268 0.9729
-2.4835 -5.8740 -2.5268 0.9729
-2.4475 -5.8893 -2.5269 0.9729
-2.4113 -5.9042 -2.5269 0.9729
-2.3750 -5.9189 -2.5269 0.9729
-2.3387 -5.9334 -2.5269 0.9729
-2.3022 -5.9477 -2.5269 0.9729
-2.2658 -5.9617 -2.5270 0.9729
-2.1925 -5.9891 -2.5270 0.9729
-2.1557 -6.0025 -2.5270 0.9729
-2.1189 -6.0156 -2.5270 0.9729
-2.0820 -6.0286 -2.5270 0.9729
-2.0449 -6.0412 -2.5270 0.9729
-2.0079 -6.0537 -2.5270 0.9729
-1.9706 -6.0659 -2.5270 0.9729
-1.9334 -6.0779 -2.5270 0.9729
-1.8961 -6.0896 -2.5271 0.9729
-1.8212 -6.1125 -2.5271 0.9729
-1.7837 -6.1235 -2.5271 0.9729
-1.7461 -6.1344 -2.5271 0.9729
-1.6707 -6.1553 -2.5271 0.9729
-1.6329 -6.1655 -2.5271 0.9729
-1.5951 -6.1754 -2.5271 0.9729
-1.5572 -6.1850 -2.5271 0.9729
-1.5192 -6.1945 -2.5271 0.9729
-1.4812 -6.2036 -2.5271 0.9729
-1.4431 -6.2126 -2.5271 0.9729
-1.4050 -6.2213 -2.5270 0.9729
-1.3285 -6.2380 -2.5270 0.9729
-1.2519 -6.2538 -2.5270 0.9729
-1.2135 -6.2614 -2.5270 0.9729
-1.1365 -6.2757 -2.5270 0.9729
-1.0980 -6.2825 -2.5270 0.9729
-1.0595 -6.2891 -2.5269 0.9729
-1.0209 -6.2955 -2.5269 0.9729
-0.9822 -6.3016 -2.5269 0.9729
-0.9435 -6.3074 -2.5269 0.9729
-0.9048 -6.3130 -2.5269 0.9729
-0.8661 -6.3184 -2.5269 0.9729
-0.8273 -6.3236 -2.5268 0.9729
-0.7885 -6.3285 -2.5268 0.9729
-0.7496 -6.3331 -2.5268 0.9729
-0.7107 -6.3376 -2.5268 0.9729
-0.6718 -6.3418 -2.5267 0.9729
-0.6329 -6.3457 -2.5267 0.9729
-0.5940 -6.3494 -2.5267 0.9729
-0.5161 -6.3560 -2.5266 0.9729
-0.4380 -6.3617 -2.5266 0.9729
-0.3990 -6.3643 -2.5265 0.9729
-0.3599 -6.3665 -2.5265 0.9729
-0.2427 -6.3718 -2.5264 0.9729
-0.2036 -6.3730 -2.5264 0.9729
-0.1254 -6.3749 -2.5263 0.9729
-0.0863 -6.3754 -2.5263 0.9729
-0.0472 -6.3757 -2.5262 0.9729
-0.0081 -6.3758 -2.5262 0.9729
0.0311 -6.3757 -2.5262 0.9729
0.0702 -6.3752 -2.5261 0.9729
0.1093 -6.3746 -2.5261 0.9729
0.1484 -6.3737 -2.5260 0.9729
0.1874 -6.3726 -2.5260 0.9729
0.2265 -6.3711 -2.5259 0.9729
0.2656 -6.3695 -2.5259 0.9729
0.3047 -6.3676 -2.5258 0.9729
0.3437 -6.3655 -2.5258 0.9729
0.3827 -6.3632 -2.5257 0.9729
0.4218 -6.3606 -2.5257 0.9729
0.4608 -6.3578 -2.5256 0.9729
0.4997 -6.3547 -2.5256 0.9729
0.5387 -6.3514 -2.5255 0.9729
0.5777 -6.3478 -2.5255 0.9729
0.6166 -6.3440 -2.5254 0.9729
0.6555 -6.3400 -2.5254 0.9729
0.6943 -6.3357 -2.5253 0.9729
0.7720 -6.3264 -2.5252 0.9730
0.8107 -6.3214 -2.5251 0.9730
0.8495 -6.3162 -2.5251 0.9730
0.8882 -6.3107 -2.5250 0.9730
0.9269 -6.3050 -2.5250 0.9730
0.9655 -6.2990 -2.5249 0.9730
1.0041 -6.2928 -2.5248 0.9730
1.0427 -6.2864 -2.5248 0.9730
1.1196 -6.2728 -2.5246 0.9730
1.1581 -6.2656 -2.5246 0.9730
1.1964 -6.2582 -2.5245 0.9730
1.2341 -6.2470 -2.5230 0.9730
1.2713 -6.2340 -2.5209 0.9730
1.3084 -6.2212 -2.5188 0.9730
1.3456 -6.2084 -2.5169 0.9730
1.3827 -6.1955 -2.5151 0.9731
1.4566 -6.1699 -2.5118 0.9731
1.4935 -6.1571 -2.5103 0.9731
1.5304 -6.1443 -2.5089 0.9731
1.5672 -6.1316 -2.5075 0.9731
1.6040 -6.1189 -2.5063 0.9732
1.6408 -6.1061 -2.5052 0.9732
1.6775 -6.0934 -2.5041 0.9732
1.7142 -6.0807 -2.5032 0.9732
1.7509 -6.0680 -2.5023 0.9732
1.7875 -6.0553 -2.5015 0.9732
1.8241 -6.0426 -2.5009 0.9732
1.8608 -6.0298 -2.5003 0.9732
1.9705 -5.9919 -2.4991 0.9732
2.0071 -5.9791 -2.4989 0.9732
2.0436 -5.9665 -2.4988 0.9732
2.0801 -5.9537 -2.4988 0.9732
2.1167 -5.9411 -2.4989 0.9732
2.1532 -5.9284 -2.4991 0.9732
2.1898 -5.9157 -2.4993 0.9732
2.2263 -5.9030 -2.4997 0.9732
2.2670 -5.9009 -2.5046 0.9732
2.3078 -5.8986 -2.5096 0.9731
2.3486 -5.8962 -2.5147 0.9731
2.3896 -5.8938 -2.5199 0.9730
2.4277 -5.8837 -2.5218 0.9730
2.4637 -5.8684 -2.5217 0.9730
2.5353 -5.8373 -2.5216 0.9730
2.5709 -5.8215 -2.5215 0.9730
2.6065 -5.8054 -2.5214 0.9730
2.6420 -5.7890 -2.5213 0.9730
2.6773 -5.7725 -2.5212 0.9730
2.7125 -5.7557 -2.5211 0.9730
2.7477 -5.7387 -2.5210 0.9730
2.7828 -5.7216 -2.5209 0.9730
2.8177 -5.7041 -2.5208 0.9730
2.8525 -5.6866 -2.5207 0.9730
2.9218 -5.6507 -2.5205 0.9730
2.9563 -5.6324 -2.5203 0.9730
2.9907 -5.6139 -2.5202 0.9730
3.0249 -5.5952 -2.5201 0.9730
3.0590 -5.5763 -2.5200 0.9730
3.0931 -5.5572 -2.5199 0.9730
3.1270 -5.5379 -2.5198 0.9730
3.1608 -5.5184 -2.5197 0.9730
3.1944 -5.4986 -2.5196 0.9730
3.2279 -5.4787 -2.5195 0.9730
3.2613 -5.4586 -2.5194 0.9730
3.2946 -5.4382 -2.5193 0.9730
3.3278 -5.4177 -2.5192 0.9730
3.3608 -5.3969 -2.5190 0.9730
3.3937 -5.3759 -2.5189 0.9730
3.4264 -5.3548 -2.5188 0.9730
3.4591 -5.3334 -2.5187 0.9730
3.4916 -5.3119 -2.5186 0.9730
3.5239 -5.2902 -2.5185 0.9730
3.5561 -5.2681 -2.5184 0.9730
3.5882 -5.2460 -2.5182 0.9730
3.6202 -5.2237 -2.5181 0.9730
3.6520 -5.2011 -2.5180 0.9730
3.6836 -5.1784 -2.5179 0.9730
3.7152 -5.1554 -2.5178 0.9730
3.7465 -5.1323 -2.5177 0.9730
3.7778 -5.1090 -2.5175 0.9730
3.8088 -5.0855 -2.5174 0.9730
3.8398 -5.0618 -2.5173 0.9730
3.8706 -5.0379 -2.5172 0.9730
3.9012 -5.0138 -2.5171 0.9730
3.9317 -4.9895 -2.5169 0.9730
3.9621 -4.9650 -2.5168 0.9730
3.9922 -4.9404 -2.5167 0.9730
4.0223 -4.9156 -2.5166 0.9730
4.0521 -4.8906 -2.5164 0.9730
4.0819 -4.8654 -2.5163 0.9730
4.1115 -4.8400 -2.5162 0.9730
4.1701 -4.7887 -2.5159 0.9730
4.1991 -4.7628 -2.5158 0.9731
4.2281 -4.7367 -2.5157 0.9731
4.2854 -4.6840 -2.5154 0.9731
4.3139 -4.6574 -2.5153 0.9731
4.3421 -4.6305 -2.5152 0.9731
4.3703 -4.6037 -2.5150 0.9731
4.3982 -4.5765 -2.5149 0.9731
4.4259 -4.5492 -2.5148 0.9731
4.4536 -4.5217 -2.5146 0.9731
4.4810 -4.4941 -2.5145 0.9731
4.5353 -4.4383 -2.5142 0.9731
4.5622 -4.4102 -2.5141 0.9731
4.5889 -4.3819 -2.5140 0.9731
4.6154 -4.3534 -2.5138 0.9731
4.6418 -4.3248 -2.5137 0.9731
4.6680 -4.2960 -2.5136 0.9731
4.6940 -4.2670 -2.5134 0.9731
4.7198 -4.2379 -2.5133 0.9731
4.7455 -4.2087 -2.5132 0.9731
4.7962 -4.1498 -2.5129 0.9731
4.8213 -4.1200 -2.5127 0.9731
4.8710 -4.0601 -2.5125 0.9731
4.8955 -4.0299 -2.5123 0.9731
4.9199 -3.9995 -2.5122 0.9731
4.9441 -3.9691 -2.5120 0.9731
4.9680 -3.9384 -2.5119 0.9731
4.9918 -3.9077 -2.5118 0.9731
5.0154 -3.8768 -2.5116 0.9731
5.0388 -3.8457 -2.5115 0.9731
5.0620 -3.8145 -2.5113 0.9731
5.0851 -3.7832 -2.5112 0.9731
5.1079 -3.7516 -2.5111 0.9731
5.1305 -3.7201 -2.5109 0.9731
5.1529 -3.6884 -2.5108 0.9731
5.1752 -3.6565 -2.5106 0.9731
5.1972 -3.6245 -2.5105 0.9731
5.2190 -3.5923 -2.5103 0.9731
5.2407 -3.5600 -2.5102 0.9731
5.2621 -3.5276 -2.5101 0.9731
5.2833 -3.4950 -2.5099 0.9731
5.3044 -3.4624 -2.5098 0.9731
5.3252 -3.4295 -2.5096 0.9731
5.3458 -3.3966 -2.5095 0.9731
5.3662 -3.3636 -2.5093 0.9731
5.3865 -3.3304 -2.5092 0.9731
5.4065 -3.2971 -2.5090 0.9731
5.4263 -3.2637 -2.5089 0.9731
5.4459 -3.2302 -2.5088 0.9731
5.4845 -3.1627 -2.5085 0.9731
5.5222 -3.0949 -2.5082 0.9731
5.5408 -3.0607 -2.5080 0.9731
5.5772 -2.9921 -2.5077 0.9731
5.5952 -2.9577 -2.5076 0.9731
5.6129 -2.9231 -2.5074 0.9731
5.6304 -2.8886 -2.5073 0.9731
5.6476 -2.8537 -2.5071 0.9731
5.6816 -2.7839 -2.5068 0.9731
5.6982 -2.7488 -2.5067 0.9731
5.7146 -2.7137 -2.5065 0.9731
5.7308 -2.6784 -2.5064 0.9731
5.7468 -2.6430 -2.5062 0.9732
5.7625 -2.6076 -2.5061 0.9732
5.7781 -2.5720 -2.5059 0.9732
5.7934 -2.5364 -2.5058 0.9732
5.8085 -2.5007 -2.5056 0.9732
5.8380 -2.4289 -2.5053 0.9732
5.8525 -2.3929 -2.5052 0.9732
5.8667 -2.3568 -2.5050 0.9732
5.8807 -2.3207 -2.5049 0.9732
5.8945 -2.2844 -2.5047 0.9732
5.9213 -2.2117 -2.5044 0.9732
5.9345 -2.1752 -2.5043 0.9732
5.9473 -2.1386 -2.5041 0.9732
5.9600 -2.1020 -2.5040 0.9732
5.9724 -2.0652 -2.5038 0.9732
5.9846 -2.0284 -2.5037 0.9732
5.9966 -1.9916 -2.5035 0.9732
6.0083 -1.9546 -2.5034 0.9732
6.0198 -1.9176 -2.5032 0.9732
6.0311 -1.8805 -2.5031 0.9732
6.0422 -1.8434 -2.5029 0.9732
6.0530 -1.8061 -2.5028 0.9732
6.0636 -1.7689 -2.5026 0.9732
6.0739 -1.7315 -2.5025 0.9732
6.0841 -1.6941 -2.5023 0.9732
6.0940 -1.6567 -2.5022 0.9732
6.1224 -1.5440 -2.5017 0.9732
6.1313 -1.5063 -2.5016 0.9732
6.1401 -1.4687 -2.5014 0.9732
6.1486 -1.4308 -2.5013 0.9732
6.1569 -1.3930 -2.5011 0.9732
6.1650 -1.3552 -2.5010 0.9732
6.1728 -1.3172 -2.5008 0.9732
6.1804 -1.2793 -2.5007 0.9732
6.1877 -1.2412 -2.5005 0.9732
6.1949 -1.2032 -2.5004 0.9732
6.2017 -1.1651 -2.5002 0.9732
6.2084 -1.1269 -2.5001 0.9732
6.2148 -1.0888 -2.4999 0.9732
6.2210 -1.0505 -2.4998 0.9732
6.2270 -1.0123 -2.4996 0.9732
6.2327 -0.9740 -2.4995 0.9732
6.2382 -0.9357 -2.4993 0.9732
6.2434 -0.8974 -2.4992 0.9732
6.2484 -0.8590 -2.4990 0.9732
6.2532 -0.8206 -2.4989 0.9732
6.2578 -0.7822 -2.4987 0.9732
6.2621 -0.7438 -2.4986 0.9732
6.2661 -0.7053 -2.4984 0.9732
6.2700 -0.6668 -2.4983 0.9732
6.2736 -0.6283 -2.4981 0.9732
6.2769 -0.5897 -2.4980 0.9732
6.2801 -0.5512 -2.4978 0.9732
6.2829 -0.5126 -2.4977 0.9732
6.2856 -0.4741 -2.4975 0.9732
6.2880 -0.4355 -2.4974 0.9732
6.2902 -0.3968 -2.4972 0.9732
6.2921 -0.3582 -2.4971 0.9732
6.2938 -0.3196 -2.4969 0.9732
6.2954 -0.2810 -2.4968 0.9733
6.2966 -0.2424 -2.4966 0.9733
6.2976 -0.2037 -2.4965 0.9733
6.2984 -0.1650 -2.4963 0.9733
6.2989 -0.1264 -2.4962 0.9733
6.2992 -0.0878 -2.4961 0.9733
6.2992 -0.0491 -2.4959 0.9733
6.2986 0.0281 -2.4956 0.9733
6.2979 0.0668 -2.4955 0.9733
6.2971 0.1054 -2.4953 0.9733
6.2959 0.1440 -2.4952 0.9733
6.2930 0.2212 -2.4949 0.9733
6.2911 0.2598 -2.4948 0.9733
6.2891 0.2984 -2.4946 0.9733
6.2867 0.3370 -2.4945 0.9733
6.2842 0.3755 -2.4943 0.9733
6.2784 0.4525 -2.4940 0.9733
6.2751 0.4909 -2.4939 0.9733
6.2717 0.5294 -2.4938 0.9733
6.2679 0.5679 -2.4936 0.9733
6.2639 0.6062 -2.4935 0.9733
6.2598 0.6447 -2.4933 0.9733
6.2554 0.6830 -2.4932 0.9733
6.2507 0.7213 -2.4931 0.9733
6.2458 0.7596 -2.4929 0.9733
6.2407 0.7979 -2.4928 0.9733
6.2354 0.8361 -2.4926 0.9733
6.2297 0.8743 -2.4925 0.9733
6.2239 0.9124 -2.4924 0.9733
6.2116 0.9886 -2.4921 0.9733
6.2051 1.0266 -2.4920 0.9733
6.1983 1.0646 -2.4918 0.9733
6.1841 1.1404 -2.4915 0.9733
6.1767 1.1782 -2.4914 0.9733
6.1690 1.2161 -2.4913 0.9733
6.1446 1.3292 -2.4909 0.9733
6.1272 1.4043 -2.4906 0.9733
6.1088 1.4792 -2.4904 0.9733
6.0896 1.5539 -2.4901 0.9733
6.0484 1.7025 -2.4896 0.9733
6.0375 1.7395 -2.4894 0.9733
6.0264 1.7764 -2.4893 0.9733
6.0151 1.8132 -2.4892 0.9733
6.0035 1.8500 -2.4891 0.9733
5.9918 1.8867 -2.4889 0.9733
5.9798 1.9234 -2.4888 0.9733
5.9676 1.9599 -2.4887 0.9733
5.9551 1.9963 -2.4886 0.9733
5.9425 2.0327 -2.4884 0.9733
5.9257 2.0677 -2.4867 0.9734
5.8580 2.0845 -2.4636 0.9736
5.7916 2.1009 -2.4410 0.9738
5.7263 2.1171 -2.4190 0.9741
5.6678 2.1351 -2.3997 0.9743
5.6203 2.1566 -2.3852 0.9744
5.6068 2.1910 -2.3851 0.9744
5.5930 2.2253 -2.3850 0.9744
5.5790 2.2594 -2.3849 0.9744
5.5648 2.2935 -2.3848 0.9744
5.5503 2.3275 -2.3846 0.9744
5.5208 2.3952 -2.3844 0.9744
5.5058 2.4289 -2.3843 0.9744
5.4905 2.4625 -2.3842 0.9744
5.4751 2.4959 -2.3841 0.9744
5.4594 2.5295 -2.3840 0.9744
5.4435 2.5628 -2.3839 0.9744
5.4275 2.5960 -2.3838 0.9744
5.4112 2.6291 -2.3836 0.9744
5.3947 2.6621 -2.3835 0.9744
5.3780 2.6950 -2.3834 0.9745
5.3612 2.7279 -2.3833 0.9745
5.3441 2.7606 -2.3832 0.9745
5.3268 2.7932 -2.3831 0.9745
5.3094 2.8257 -2.3830 0.9745
5.2738 2.8904 -2.3828 0.9745
5.2558 2.9225 -2.3827 0.9745
5.2375 2.9545 -2.3826 0.9745
5.2191 2.9865 -2.3825 0.9745
5.2004 3.0184 -2.3824 0.9745
5.1816 3.0501 -2.3823 0.9745
5.1626 3.0816 -2.3822 0.9745
5.1239 3.1445 -2.3820 0.9745
5.1044 3.1758 -2.3819 0.9745
5.0846 3.2069 -2.3818 0.9745
5.0646 3.2379 -2.3817 0.9745
5.0445 3.2688 -2.3816 0.9745
5.0241 3.2995 -2.3815 0.9745
5.0036 3.3302 -2.3814 0.9745
4.9829 3.3606 -2.3813 0.9745
4.9409 3.4212 -2.3812 0.9745
4.9196 3.4514 -2.3811 0.9745
4.8981 3.4814 -2.3810 0.9745
4.8765 3.5112 -2.3809 0.9745
4.8547 3.5410 -2.3808 0.9745
4.8327 3.5705 -2.3807 0.9745
4.7656 3.6584 -2.3804 0.9745
4.7429 3.6875 -2.3804 0.9745
4.7201 3.7163 -2.3803 0.9745
4.6970 3.7451 -2.3802 0.9745
4.6738 3.7737 -2.3801 0.9745
4.6504 3.8021 -2.3800 0.9745
4.6268 3.8305 -2.3799 0.9745
4.6031 3.8587 -2.3799 0.9745
4.5792 3.8867 -2.3798 0.9745
4.5551 3.9146 -2.3797 0.9745
4.5308 3.9423 -2.3796 0.9745
4.5064 3.9699 -2.3795 0.9745
4.4818 3.9973 -2.3795 0.9745
4.4571 4.0247 -2.3794 0.9745
4.4322 4.0518 -2.3793 0.9745
4.4071 4.0788 -2.3792 0.9745
4.3819 4.1056 -2.3792 0.9745
4.3564 4.1322 -2.3791 0.9745
4.3309 4.1588 -2.3790 0.9745
4.3052 4.1852 -2.3789 0.9745
4.2793 4.2113 -2.3789 0.9745
4.2270 4.2633 -2.3787 0.9745
4.2007 4.2890 -2.3786 0.9745
4.1742 4.3146 -2.3786 0.9745
4.1475 4.3400 -2.3785 0.9745
4.1207 4.3652 -2.3784 0.9745
4.0937 4.3903 -2.3784 0.9745
4.0666 4.4152 -2.3783 0.9745
4.0393 4.4399 -2.3782 0.9745
4.0119 4.4645 -2.3782 0.9745
3.9843 4.4889 -2.3781 0.9745
3.9288 4.5372 -2.3780 0.9745
3.9008 4.5611 -2.3779 0.9745
3.8443 4.6084 -2.3778 0.9745
3.8159 4.6318 -2.3778 0.9745
3.7586 4.6780 -2.3776 0.9745
3.7297 4.7009 -2.3776 0.9745
3.7008 4.7235 -2.3775 0.9745
3.6716 4.7460 -2.3775 0.9745
3.6129 4.7905 -2.3774 0.9745
3.5834 4.8125 -2.3773 0.9745
3.5538 4.8342 -2.3773 0.9745
3.5240 4.8559 -2.3772 0.9745
3.4940 4.8773 -2.3772 0.9745
3.4639 4.8985 -2.3771 0.9745
3.4338 4.9196 -2.3771 0.9745
3.4035 4.9405 -2.3770 0.9745
3.3730 4.9611 -2.3770 0.9745
3.3425 4.9817 -2.3769 0.9745
3.3118 5.0020 -2.3769 0.9745
3.2501 5.0420 -2.3768 0.9745
3.2190 5.0618 -2.3767 0.9745
3.1879 5.0813 -2.3767 0.9745
3.1566 5.1007 -2.3767 0.9745
3.1251 5.1199 -2.3766 0.9745
3.0936 5.1389 -2.3766 0.9745
3.0620 5.1577 -2.3765 0.9745
3.0303 5.1763 -2.3765 0.9745
2.9984 5.1947 -2.3765 0.9745
2.9664 5.2129 -2.3764 0.9745
2.9344 5.2309 -2.3764 0.9745
2.9022 5.2488 -2.3764 0.9745
2.8699 5.2663 -2.3763 0.9745
2.8375 5.2839 -2.3763 0.9745
2.8050 5.3011 -2.3763 0.9745
2.7724 5.3181 -2.3762 0.9745
2.7396 5.3349 -2.3762 0.9745
2.7069 5.3516 -2.3762 0.9745
2.6739 5.3680 -2.3762 0.9745
2.6409 5.3842 -2.3761 0.9745
2.6078 5.4003 -2.3761 0.9745
2.5746 5.4162 -2.3761 0.9745
2.5413 5.4318 -2.3760 0.9745
2.5079 5.4473 -2.3760 0.9745
2.4745 5.4624 -2.3760 0.9745
2.4072 5.4923 -2.3760 0.9745
2.3734 5.5070 -2.3759 0.9745
2.3396 5.5213 -2.3759 0.9745
2.3057 5.5355 -2.3759 0.9745
2.2716 5.5495 -2.3759 0.9745
2.2375 5.5633 -2.3759 0.9745
2.2034 5.5769 -2.3759 0.9745
2.1691 5.5902 -2.3758 0.9745
2.1003 5.6164 -2.3758 0.9745
2.0658 5.6291 -2.3758 0.9745
2.0312 5.6417 -2.3758 0.9745
1.9618 5.6661 -2.3758 0.9745
1.9270 5.6780 -2.3758 0.9745
1.8921 5.6898 -2.3757 0.9745
1.8572 5.7012 -2.3757 0.9745
1.8222 5.7125 -2.3757 0.9745
1.7871 5.7236 -2.3757 0.9745
1.7520 5.7344 -2.3757 0.9745
1.7168 5.7450 -2.3757 0.9745
1.6815 5.7555 -2.3757 0.9745
1.6462 5.7656 -2.3757 0.9745
1.6108 5.7756 -2.3757 0.9745
1.5753 5.7854 -2.3757 0.9745
1.5042 5.8043 -2.3757 0.9745
1.4686 5.8134 -2.3757 0.9745
1.4329 5.8223 -2.3757 0.9745
1.3971 5.8310 -2.3757 0.9745
1.3613 5.8395 -2.3757 0.9745
1.3255 5.8477 -2.3757 0.9745
1.2177 5.8712 -2.3758 0.9745
1.1817 5.8786 -2.3758 0.9745
1.1456 5.8858 -2.3758 0.9745
1.1095 5.8927 -2.3758 0.9745
1.0733 5.8994 -2.3758 0.9745
1.0371 5.9059 -2.3758 0.9745
1.0009 5.9122 -2.3758 0.9745
0.9283 5.9241 -2.3759 0.9745
0.8919 5.9297 -2.3759 0.9745
0.8555 5.9351 -2.3759 0.9745
0.8191 5.9404 -2.3759 0.9745
0.7826 5.9452 -2.3759 0.9745
0.7462 5.9500 -2.3759 0.9745
0.7096 5.9545 -2.3760 0.9745
0.6731 5.9588 -2.3760 0.9745
0.6366 5.9629 -2.3760 0.9745
0.6000 5.9667 -2.3760 0.9745
0.5634 5.9704 -2.3761 0.9745
0.4901 5.9770 -2.3761 0.9745
0.4534 5.9799 -2.3761 0.9745
0.3800 5.9852 -2.3762 0.9745
0.3433 5.9875 -2.3762 0.9745
0.3066 5.9895 -2.3762 0.9745
0.2698 5.9914 -2.3763 0.9745
0.2331 5.9930 -2.3763 0.9745
0.1963 5.9945 -2.3763 0.9745
0.1595 5.9956 -2.3764 0.9745
0.1228 5.9965 -2.3764 0.9745
0.0860 5.9973 -2.3764 0.9745
0.0492 5.9977 -2.3765 0.9745
0.0124 5.9980 -2.3765 0.9745
-0.0244 5.9981 -2.3766 0.9745
-0.0612 5.9979 -2.3766 0.9745
-0.1348 5.9970 -2.3767 0.9745
-0.1715 5.9961 -2.3767 0.9745
-0.2083 5.9950 -2.3768 0.9745
-0.2451 5.9938 -2.3768 0.9745
-0.3187 5.9905 -2.3769 0.9745
-0.3554 5.9886 -2.3769 0.9745
-0.3921 5.9864 -2.3770 0.9745
-0.4289 5.9840 -2.3770 0.9745
-0.4655 5.9814 -2.3771 0.9745
-0.5389 5.9754 -2.3772 0.9745
-0.5756 5.9722 -2.3772 0.9745
-0.6122 5.9687 -2.3773 0.9745
-0.6488 5.9649 -2.3773 0.9745
-0.6854 5.9609 -2.3774 0.9745
-0.7220 5.9568 -2.3774 0.9745
-0.7585 5.9523 -2.3775 0.9745
-0.7950 5.9477 -2.3775 0.9745
-0.8315 5.9429 -2.3776 0.9745
-0.8680 5.9378 -2.3776 0.9745
-0.9045 5.9325 -2.3777 0.9745
-0.9408 5.9270 -2.3778 0.9745
-0.9772 5.9212 -2.3778 0.9745
-1.0135 5.9153 -2.3779 0.9745
-1.0498 5.9092 -2.3779 0.9745
-1.0861 5.9027 -2.3780 0.9745
-1.1223 5.8961 -2.3781 0.9745
-1.1585 5.8893 -2.3781 0.9745
