ply
format ascii 1.0
element vertex 1583
property float32 x
property float32 y
property float32 z
property float32 I
end_header
-4.4239 1.5716 -2.4955 0.9790
-4.4335 1.5445 -2.4955 0.9790
-4.4429 1.5172 -2.4955 0.9790
-4.4521 1.4899 -2.4954 0.9790
-4.4612 1.4626 -2.4954 0.9790
-4.4700 1.4352 -2.4954 0.9790
-4.4787 1.4077 -2.4954 0.9790
-4.4873 1.3802 -2.4954 0.9790
-4.4956 1.3527 -2.4954 0.9790
-4.5119 1.2974 -2.4954 0.9790
-4.5197 1.2697 -2.4954 0.9790
-4.5274 1.2419 -2.4954 0.9790
-4.5349 1.2141 -2.4954 0.9790
-4.5423 1.1863 -2.4954 0.9790
-4.5495 1.1584 -2.4954 0.9790
-4.5565 1.1304 -2.4953 0.9790
-4.5633 1.1025 -2.4953 0.9790
-4.5700 1.0745 -2.4953 0.9790
-4.5765 1.0464 -2.4953 0.9790
-4.5828 1.0183 -2.4953 0.9790
-4.5949 0.9620 -2.4953 0.9790
-4.6007 0.9338 -2.4953 0.9790
-4.6064 0.9055 -2.4953 0.9790
-4.6118 0.8773 -2.4953 0.9790
-4.6171 0.8489 -2.4953 0.9790
-4.6222 0.8206 -2.4953 0.9790
-4.6272 0.7922 -2.4953 0.9790
-4.6320 0.7638 -2.4953 0.9790
-4.6365 0.7354 -2.4953 0.9790
-4.6410 0.7069 -2.4953 0.9790
-4.6452 0.6784 -2.4953 0.9790
-4.6493 0.6499 -2.4953 0.9790
-4.6569 0.5928 -2.4953 0.9790
-4.6604 0.5642 -2.4953 0.9790
-4.6638 0.5357 -2.4953 0.9790
-4.6670 0.5070 -2.4953 0.9790
-4.6700 0.4784 -2.4953 0.9790
-4.6729 0.4497 -2.4953 0.9790
-4.6755 0.4211 -2.4953 0.9790
-4.6780 0.3924 -2.4953 0.9790
-4.6863 0.2774 -2.4953 0.9790
-4.6879 0.2487 -2.4953 0.9790
-4.6893 0.2199 -2.4953 0.9790
-4.6906 0.1912 -2.4953 0.9790
-4.6917 0.1624 -2.4953 0.9790
-4.6926 0.1336 -2.4953 0.9790
-4.6933 0.1048 -2.4953 0.9790
-4.6939 0.0760 -2.4953 0.9790
-4.6942 0.0472 -2.4953 0.9790
-4.6945 0.0184 -2.4953 0.9790
-4.6945 -0.0104 -2.4953 0.9790
-4.6943 -0.0392 -2.4953 0.9790
-4.6940 -0.0680 -2.4953 0.9790
-4.6935 -0.0968 -2.4953 0.9790
-4.6920 -0.1544 -2.4953 0.9790
-4.6910 -0.1832 -2.4953 0.9790
-4.6898 -0.2119 -2.4953 0.9790
-4.6868 -0.2695 -2.4953 0.9790
-4.6851 -0.2982 -2.4953 0.9790
-4.6811 -0.3557 -2.4953 0.9790
-4.6788 -0.3844 -2.4953 0.9790
-4.6764 -0.4131 -2.4953 0.9790
-4.6738 -0.4418 -2.4953 0.9790
-4.6710 -0.4704 -2.4954 0.9790
-4.6680 -0.4991 -2.4954 0.9790
-4.6649 -0.5277 -2.4954 0.9790
-4.6616 -0.5563 -2.4954 0.9790
-4.6581 -0.5849 -2.4954 0.9790
-4.6545 -0.6135 -2.4954 0.9790
-4.6506 -0.6420 -2.4954 0.9790
-4.6466 -0.6705 -2.4954 0.9790
-4.6424 -0.6990 -2.4954 0.9790
-4.6380 -0.7275 -2.4954 0.9790
-4.6288 -0.7844 -2.4954 0.9790
-4.6189 -0.8411 -2.4955 0.9790
-4.6136 -0.8694 -2.4955 0.9790
-4.6082 -0.8977 -2.4955 0.9790
-4.6027 -0.9260 -2.4955 0.9790
-4.5969 -0.9542 -2.4955 0.9790
-4.5910 -0.9824 -2.4955 0.9790
-4.5849 -1.0106 -2.4955 0.9790
-4.5722 -1.0667 -2.4955 0.9790
-4.5656 -1.0948 -2.4956 0.9790
-4.5588 -1.1228 -2.4956 0.9790
-4.5518 -1.1507 -2.4956 0.9790
-4.5447 -1.1786 -2.4956 0.9790
-4.5374 -1.2065 -2.4956 0.9790
-4.5300 -1.2343 -2.4956 0.9790
-4.5223 -1.2621 -2.4956 0.9790
-4.5145 -1.2898 -2.4956 0.9790
-4.5065 -1.3175 -2.4956 0.9790
-4.4984 -1.3451 -2.4957 0.9790
-4.4901 -1.3727 -2.4957 0.9790
-4.4816 -1.4002 -2.4957 0.9790
-4.4729 -1.4277 -2.4957 0.9790
-4.4641 -1.4551 -2.4957 0.9790
-4.4367 -1.5371 -2.4958 0.9790
-4.4272 -1.5643 -2.4958 0.9790
-4.4175 -1.5914 -2.4958 0.9790
-4.4077 -1.6185 -2.4958 0.9790
-4.3977 -1.6455 -2.4958 0.9790
-4.3876 -1.6725 -2.4958 0.9790
-4.3773 -1.6994 -2.4958 0.9790
-4.3668 -1.7262 -2.4959 0.9790
-4.3562 -1.7530 -2.4959 0.9790
-4.3454 -1.7797 -2.4959 0.9790
-4.3344 -1.8063 -2.4959 0.9790
-4.3232 -1.8329 -2.4959 0.9790
-4.3119 -1.8594 -2.4959 0.9790
-4.3004 -1.8858 -2.4960 0.9790
-4.2888 -1.9122 -2.4960 0.9790
-4.2771 -1.9385 -2.4960 0.9790
-4.2651 -1.9647 -2.4960 0.9790
-4.2530 -1.9908 -2.4960 0.9790
-4.2408 -2.0169 -2.4961 0.9790
-4.2157 -2.0688 -2.4961 0.9790
-4.2030 -2.0946 -2.4961 0.9790
-4.1901 -2.1204 -2.4961 0.9790
-4.1771 -2.1461 -2.4961 0.9790
-4.1639 -2.1717 -2.4962 0.9790
-4.1505 -2.1972 -2.4962 0.9790
-4.1369 -2.2227 -2.4962 0.9790
-4.1233 -2.2480 -2.4962 0.9790
-4.1094 -2.2733 -2.4962 0.9790
-4.0955 -2.2985 -2.4963 0.9790
-4.0813 -2.3236 -2.4963 0.9790
-4.0670 -2.3486 -2.4963 0.9790
-4.0526 -2.3735 -2.4963 0.9789
-4.0232 -2.4231 -2.4964 0.9789
-4.0083 -2.4478 -2.4964 0.9789
-3.9933 -2.4723 -2.4964 0.9789
-3.9780 -2.4968 -2.4964 0.9789
-3.9627 -2.5212 -2.4965 0.9789
-3.9472 -2.5455 -2.4965 0.9789
-3.9157 -2.5938 -2.4965 0.9789
-3.8998 -2.6178 -2.4965 0.9789
-3.8837 -2.6417 -2.4966 0.9789
-3.8674 -2.6654 -2.4966 0.9789
-3.8510 -2.6892 -2.4966 0.9789
-3.8345 -2.7128 -2.4966 0.9789
-3.8178 -2.7362 -2.4967 0.9789
-3.8010 -2.7597 -2.4967 0.9789
-3.7840 -2.7829 -2.4967 0.9789
-3.7669 -2.8061 -2.4967 0.9789
-3.7496 -2.8292 -2.4968 0.9789
-3.7323 -2.8522 -2.4968 0.9789
-3.7147 -2.8751 -2.4968 0.9789
-3.6793 -2.9205 -2.4969 0.9789
-3.6613 -2.9430 -2.4969 0.9789
-3.6432 -2.9655 -2.4969 0.9789
-3.6250 -2.9878 -2.4969 0.9789
-3.6066 -3.0100 -2.4970 0.9789
-3.5695 -3.0541 -2.4970 0.9789
-3.5507 -3.0760 -2.4970 0.9789
-3.5318 -3.0977 -2.4971 0.9789
-3.5128 -3.1194 -2.4971 0.9789
-3.4936 -3.1409 -2.4971 0.9789
-3.4549 -3.1836 -2.4972 0.9789
-3.4353 -3.2048 -2.4972 0.9789
-3.4157 -3.2258 -2.4972 0.9789
-3.3959 -3.2468 -2.4973 0.9789
-3.3759 -3.2676 -2.4973 0.9789
-3.3558 -3.2883 -2.4973 0.9789
-3.3356 -3.3088 -2.4973 0.9789
-3.3153 -3.3292 -2.4974 0.9789
-3.2949 -3.3496 -2.4974 0.9789
-3.2743 -3.3697 -2.4974 0.9789
-3.2328 -3.4097 -2.4975 0.9789
-3.2118 -3.4296 -2.4975 0.9789
-3.1908 -3.4492 -2.4975 0.9789
-3.1696 -3.4688 -2.4976 0.9789
-3.1483 -3.4882 -2.4976 0.9789
-3.1268 -3.5075 -2.4976 0.9789
-3.1053 -3.5267 -2.4976 0.9789
-3.0619 -3.5646 -2.4977 0.9789
-3.0400 -3.5833 -2.4977 0.9789
-3.0179 -3.6020 -2.4978 0.9789
-2.9958 -3.6204 -2.4978 0.9789
-2.9736 -3.6388 -2.4978 0.9789
-2.9513 -3.6570 -2.4979 0.9789
-2.9288 -3.6751 -2.4979 0.9789
-2.9063 -3.6931 -2.4979 0.9789
-2.8608 -3.7285 -2.4980 0.9789
-2.8379 -3.7461 -2.4980 0.9789
-2.8149 -3.7634 -2.4980 0.9789
-2.7918 -3.7807 -2.4981 0.9789
-2.7686 -3.7978 -2.4981 0.9789
-2.7453 -3.8148 -2.4981 0.9789
-2.7219 -3.8316 -2.4982 0.9789
-2.6747 -3.8648 -2.4982 0.9789
-2.6510 -3.8812 -2.4983 0.9789
-2.6271 -3.8974 -2.4983 0.9789
-2.6032 -3.9135 -2.4983 0.9789
-2.5792 -3.9294 -2.4984 0.9789
-2.5551 -3.9452 -2.4984 0.9789
-2.5309 -3.9609 -2.4984 0.9789
-2.5065 -3.9764 -2.4985 0.9789
-2.4821 -3.9918 -2.4985 0.9789
-2.4576 -4.0070 -2.4985 0.9789
-2.4330 -4.0220 -2.4986 0.9789
-2.4083 -4.0369 -2.4986 0.9789
-2.3835 -4.0517 -2.4986 0.9789
-2.3587 -4.0663 -2.4987 0.9789
-2.3337 -4.0807 -2.4987 0.9789
-2.3087 -4.0950 -2.4987 0.9789
-2.2583 -4.1231 -2.4988 0.9789
-2.2330 -4.1370 -2.4988 0.9789
-2.2076 -4.1507 -2.4989 0.9789
-2.1821 -4.1642 -2.4989 0.9789
-2.1566 -4.1775 -2.4989 0.9789
-2.1309 -4.1908 -2.4990 0.9789
-2.1052 -4.2038 -2.4990 0.9789
-2.0535 -4.2294 -2.4991 0.9789
-2.0275 -4.2420 -2.4991 0.9789
-2.0015 -4.2544 -2.4991 0.9789
-1.9754 -4.2667 -2.4992 0.9789
-1.9492 -4.2788 -2.4992 0.9789
-1.9230 -4.2907 -2.4992 0.9789
-1.8966 -4.3025 -2.4993 0.9789
-1.8702 -4.3141 -2.4993 0.9789
-1.8438 -4.3255 -2.4993 0.9789
-1.7906 -4.3480 -2.4994 0.9789
-1.7639 -4.3589 -2.4994 0.9789
-1.7371 -4.3697 -2.4995 0.9789
-1.7104 -4.3804 -2.4995 0.9789
-1.6835 -4.3908 -2.4995 0.9789
-1.6565 -4.4012 -2.4996 0.9789
-1.6295 -4.4113 -2.4996 0.9789
-1.6024 -4.4213 -2.4996 0.9789
-1.5481 -4.4407 -2.4997 0.9789
-1.5209 -4.4502 -2.4998 0.9789
-1.4936 -4.4595 -2.4998 0.9789
-1.4662 -4.4687 -2.4998 0.9789
-1.4113 -4.4864 -2.4999 0.9789
-1.3562 -4.5036 -2.5000 0.9789
-1.3285 -4.5119 -2.5000 0.9789
-1.3008 -4.5200 -2.5000 0.9789
-1.2731 -4.5279 -2.5001 0.9789
-1.2175 -4.5434 -2.5002 0.9789
-1.1617 -4.5581 -2.5002 0.9789
-1.1337 -4.5652 -2.5003 0.9789
-1.0777 -4.5789 -2.5003 0.9789
-1.0496 -4.5855 -2.5004 0.9789
-1.0214 -4.5919 -2.5004 0.9789
-0.9933 -4.5982 -2.5004 0.9789
-0.9650 -4.6042 -2.5005 0.9789
-0.9368 -4.6101 -2.5005 0.9789
-0.9085 -4.6158 -2.5006 0.9789
-0.8802 -4.6214 -2.5006 0.9789
-0.8518 -4.6268 -2.5006 0.9789
-0.7950 -4.6370 -2.5007 0.9789
-0.7665 -4.6419 -2.5007 0.9789
-0.7380 -4.6466 -2.5008 0.9789
-0.7096 -4.6511 -2.5008 0.9789
-0.6810 -4.6554 -2.5008 0.9789
-0.6525 -4.6596 -2.5009 0.9789
-0.6239 -4.6636 -2.5009 0.9789
-0.5953 -4.6674 -2.5010 0.9789
-0.5666 -4.6710 -2.5010 0.9789
-0.5380 -4.6745 -2.5010 0.9789
-0.5093 -4.6777 -2.5011 0.9789
-0.4806 -4.6809 -2.5011 0.9789
-0.4519 -4.6838 -2.5011 0.9789
-0.4231 -4.6865 -2.5012 0.9789
-0.3944 -4.6891 -2.5012 0.9789
-0.3656 -4.6915 -2.5012 0.9789
-0.3368 -4.6937 -2.5013 0.9789
-0.3080 -4.6958 -2.5013 0.9789
-0.2792 -4.6977 -2.5014 0.9789
-0.2504 -4.6994 -2.5014 0.9789
-0.2216 -4.7009 -2.5014 0.9789
-0.1927 -4.7022 -2.5015 0.9789
-0.1639 -4.7034 -2.5015 0.9789
-0.1350 -4.7043 -2.5015 0.9789
-0.1061 -4.7052 -2.5016 0.9789
-0.0773 -4.7058 -2.5016 0.9789
-0.0484 -4.7062 -2.5017 0.9789
-0.0195 -4.7065 -2.5017 0.9789
0.0093 -4.7066 -2.5017 0.9789
0.0382 -4.7066 -2.5018 0.9789
0.0671 -4.7063 -2.5018 0.9789
0.0960 -4.7059 -2.5018 0.9789
0.1248 -4.7053 -2.5019 0.9789
0.1537 -4.7045 -2.5019 0.9789
0.1825 -4.7035 -2.5019 0.9789
0.2114 -4.7024 -2.5020 0.9789
0.2403 -4.7011 -2.5020 0.9789
0.2691 -4.6996 -2.5021 0.9789
0.2979 -4.6979 -2.5021 0.9789
0.3267 -4.6960 -2.5021 0.9789
0.3556 -4.6940 -2.5022 0.9789
0.3844 -4.6918 -2.5022 0.9789
0.4131 -4.6894 -2.5022 0.9789
0.4419 -4.6869 -2.5023 0.9789
0.4706 -4.6842 -2.5023 0.9789
0.4994 -4.6813 -2.5024 0.9789
0.5281 -4.6782 -2.5024 0.9789
0.5568 -4.6749 -2.5024 0.9789
0.6141 -4.6679 -2.5025 0.9789
0.6428 -4.6641 -2.5025 0.9789
0.6714 -4.6601 -2.5026 0.9789
0.7000 -4.6560 -2.5026 0.9789
0.7286 -4.6516 -2.5026 0.9789
0.8141 -4.6376 -2.5027 0.9789
0.8425 -4.6326 -2.5028 0.9789
0.8709 -4.6275 -2.5028 0.9789
0.8993 -4.6221 -2.5029 0.9789
0.9277 -4.6165 -2.5029 0.9789
0.9560 -4.6108 -2.5029 0.9789
0.9843 -4.6049 -2.5030 0.9789
1.0125 -4.5989 -2.5030 0.9789
1.0407 -4.5926 -2.5030 0.9789
1.0689 -4.5862 -2.5031 0.9789
1.0971 -4.5796 -2.5031 0.9789
1.1251 -4.5729 -2.5031 0.9789
1.1532 -4.5660 -2.5032 0.9789
1.2092 -4.5516 -2.5032 0.9789
1.2371 -4.5442 -2.5033 0.9789
1.2650 -4.5365 -2.5033 0.9789
1.3205 -4.5208 -2.5034 0.9789
1.3483 -4.5127 -2.5034 0.9789
1.3760 -4.5044 -2.5034 0.9789
1.4036 -4.4959 -2.5035 0.9789
1.4312 -4.4873 -2.5035 0.9789
1.4587 -4.4785 -2.5036 0.9789
1.4861 -4.4695 -2.5036 0.9789
1.5136 -4.4604 -2.5036 0.9789
1.5954 -4.4319 -2.5037 0.9789
1.6226 -4.4221 -2.5038 0.9789
1.6497 -4.4122 -2.5038 0.9789
1.6768 -4.4020 -2.5038 0.9789
1.7307 -4.3812 -2.5039 0.9789
1.7576 -4.3706 -2.5039 0.9789
1.7844 -4.3598 -2.5040 0.9789
1.8378 -4.3377 -2.5040 0.9789
1.8644 -4.3264 -2.5041 0.9789
1.8910 -4.3149 -2.5041 0.9789
1.9174 -4.3033 -2.5041 0.9789
1.9438 -4.2915 -2.5042 0.9789
1.9701 -4.2795 -2.5042 0.9789
1.9963 -4.2674 -2.5042 0.9789
2.0225 -4.2552 -2.5042 0.9789
2.0487 -4.2427 -2.5043 0.9789
2.0746 -4.2301 -2.5043 0.9789
2.1006 -4.2174 -2.5043 0.9789
2.1264 -4.2045 -2.5044 0.9789
2.1522 -4.1914 -2.5044 0.9789
2.1780 -4.1782 -2.5044 0.9789
2.2036 -4.1648 -2.5045 0.9789
2.2291 -4.1512 -2.5045 0.9789
2.2545 -4.1375 -2.5045 0.9789
2.2799 -4.1237 -2.5046 0.9789
2.3052 -4.1096 -2.5046 0.9789
2.3304 -4.0955 -2.5046 0.9789
2.3555 -4.0811 -2.5047 0.9789
2.3805 -4.0667 -2.5047 0.9789
2.4303 -4.0373 -2.5047 0.9789
2.4551 -4.0223 -2.5048 0.9789
2.4797 -4.0072 -2.5048 0.9789
2.5043 -3.9920 -2.5048 0.9789
2.5288 -3.9766 -2.5049 0.9789
2.5531 -3.9611 -2.5049 0.9789
2.6016 -3.9295 -2.5050 0.9789
2.6257 -3.9135 -2.5050 0.9789
2.6497 -3.8974 -2.5050 0.9789
2.6736 -3.8811 -2.5050 0.9789
2.7210 -3.8481 -2.5051 0.9789
2.7447 -3.8314 -2.5051 0.9789
2.7681 -3.8145 -2.5052 0.9789
2.7915 -3.7975 -2.5052 0.9789
2.8148 -3.7804 -2.5052 0.9789
2.8380 -3.7631 -2.5052 0.9789
2.8610 -3.7456 -2.5053 0.9789
2.9068 -3.7103 -2.5053 0.9789
2.9296 -3.6925 -2.5053 0.9789
2.9522 -3.6745 -2.5054 0.9789
2.9747 -3.6563 -2.5054 0.9789
2.9971 -3.6380 -2.5054 0.9789
3.0416 -3.6011 -2.5055 0.9789
3.0637 -3.5824 -2.5055 0.9789
3.0856 -3.5635 -2.5055 0.9789
3.1074 -3.5446 -2.5056 0.9789
3.1292 -3.5255 -2.5056 0.9789
3.1508 -3.5062 -2.5056 0.9789
3.1723 -3.4869 -2.5056 0.9789
3.1936 -3.4674 -2.5057 0.9789
3.2149 -3.4478 -2.5057 0.9789
3.2570 -3.4081 -2.5057 0.9789
3.2779 -3.3881 -2.5058 0.9789
3.2986 -3.3680 -2.5058 0.9789
3.3193 -3.3477 -2.5058 0.9789
3.3398 -3.3273 -2.5058 0.9789
3.3804 -3.2862 -2.5059 0.9789
3.4005 -3.2654 -2.5059 0.9789
3.4205 -3.2445 -2.5059 0.9789
3.4404 -3.2235 -2.5060 0.9789
3.4601 -3.2024 -2.5060 0.9789
3.4797 -3.1811 -2.5060 0.9789
3.4993 -3.1597 -2.5060 0.9789
3.5186 -3.1382 -2.5060 0.9789
3.5759 -3.0730 -2.5061 0.9789
3.6134 -3.0289 -2.5062 0.9789
3.6319 -3.0067 -2.5062 0.9789
3.6503 -2.9844 -2.5062 0.9789
3.6686 -2.9620 -2.5062 0.9789
3.6867 -2.9395 -2.5062 0.9789
3.7047 -2.9168 -2.5063 0.9789
3.7226 -2.8940 -2.5063 0.9789
3.7403 -2.8712 -2.5063 0.9789
3.7579 -2.8482 -2.5063 0.9789
3.7753 -2.8251 -2.5063 0.9789
3.8267 -2.7552 -2.5064 0.9789
3.8436 -2.7317 -2.5064 0.9789
3.8603 -2.7081 -2.5064 0.9789
3.8769 -2.6844 -2.5065 0.9789
3.8933 -2.6606 -2.5065 0.9789
3.9096 -2.6367 -2.5065 0.9789
3.9257 -2.6126 -2.5065 0.9789
3.9417 -2.5885 -2.5065 0.9789
3.9575 -2.5643 -2.5065 0.9789
4.0041 -2.4911 -2.5066 0.9789
4.0345 -2.4418 -2.5066 0.9789
4.0494 -2.4170 -2.5067 0.9789
4.0642 -2.3922 -2.5067 0.9789
4.0933 -2.3421 -2.5067 0.9789
4.1217 -2.2918 -2.5067 0.9789
4.1358 -2.2665 -2.5067 0.9789
4.1496 -2.2411 -2.5068 0.9789
4.1633 -2.2156 -2.5068 0.9789
4.1768 -2.1900 -2.5068 0.9789
4.1902 -2.1643 -2.5068 0.9789
4.2165 -2.1128 -2.5068 0.9789
4.2294 -2.0869 -2.5068 0.9789
4.2422 -2.0609 -2.5069 0.9789
4.2547 -2.0349 -2.5069 0.9789
4.2672 -2.0087 -2.5069 0.9789
4.2916 -1.9562 -2.5069 0.9789
4.3035 -1.9299 -2.5069 0.9789
4.3153 -1.9035 -2.5069 0.9789
4.3269 -1.8770 -2.5070 0.9789
4.3383 -1.8504 -2.5070 0.9789
4.3496 -1.8237 -2.5070 0.9789
4.3608 -1.7970 -2.5070 0.9789
4.3717 -1.7703 -2.5070 0.9789
4.3825 -1.7434 -2.5070 0.9789
4.3932 -1.7165 -2.5070 0.9789
4.4036 -1.6895 -2.5070 0.9789
4.4139 -1.6625 -2.5070 0.9789
4.4241 -1.6354 -2.5071 0.9789
4.4340 -1.6082 -2.5071 0.9789
4.4438 -1.5810 -2.5071 0.9789
4.4535 -1.5537 -2.5071 0.9789
4.4629 -1.5264 -2.5071 0.9789
4.4722 -1.4990 -2.5071 0.9789
4.4814 -1.4715 -2.5071 0.9789
4.5077 -1.3888 -2.5071 0.9789
4.5162 -1.3611 -2.5071 0.9789
4.5326 -1.3056 -2.5072 0.9789
4.5404 -1.2778 -2.5072 0.9789
4.5482 -1.2499 -2.5072 0.9789
4.5558 -1.2220 -2.5072 0.9789
4.5705 -1.1660 -2.5072 0.9789
4.5845 -1.1098 -2.5072 0.9789
4.5912 -1.0817 -2.5072 0.9789
4.5978 -1.0535 -2.5072 0.9789
4.6042 -1.0253 -2.5072 0.9789
4.6104 -0.9970 -2.5072 0.9789
4.6164 -0.9687 -2.5072 0.9789
4.6223 -0.9404 -2.5072 0.9789
4.6280 -0.9120 -2.5072 0.9789
4.6335 -0.8836 -2.5072 0.9789
4.6440 -0.8267 -2.5073 0.9789
4.6490 -0.7982 -2.5073 0.9789
4.6538 -0.7696 -2.5073 0.9789
4.6672 -0.6838 -2.5073 0.9789
4.6713 -0.6552 -2.5073 0.9789
4.6790 -0.5978 -2.5073 0.9789
4.6826 -0.5691 -2.5073 0.9789
4.6860 -0.5404 -2.5073 0.9789
4.6892 -0.5116 -2.5073 0.9789
4.6952 -0.4541 -2.5073 0.9789
4.6979 -0.4253 -2.5073 0.9789
4.7004 -0.3964 -2.5073 0.9789
4.7027 -0.3676 -2.5073 0.9789
4.7049 -0.3387 -2.5073 0.9789
4.7087 -0.2809 -2.5073 0.9789
4.7118 -0.2232 -2.5073 0.9789
4.7131 -0.1942 -2.5073 0.9789
4.7142 -0.1653 -2.5073 0.9789
4.7158 -0.1075 -2.5073 0.9789
4.7164 -0.0786 -2.5073 0.9789
4.7168 -0.0496 -2.5073 0.9789
4.7170 0.0083 -2.5073 0.9789
4.7169 0.0372 -2.5073 0.9789
4.7166 0.0661 -2.5073 0.9789
4.7161 0.0951 -2.5073 0.9789
4.7154 0.1240 -2.5073 0.9789
4.7145 0.1529 -2.5072 0.9789
4.7135 0.1818 -2.5072 0.9789
4.7123 0.2108 -2.5072 0.9789
4.7109 0.2397 -2.5072 0.9789
4.7093 0.2686 -2.5072 0.9789
4.7076 0.2975 -2.5072 0.9789
4.7057 0.3263 -2.5072 0.9789
4.7035 0.3552 -2.5072 0.9789
4.7013 0.3840 -2.5072 0.9789
4.6988 0.4129 -2.5072 0.9789
4.6962 0.4417 -2.5072 0.9789
4.6934 0.4705 -2.5072 0.9789
4.6904 0.4993 -2.5072 0.9789
4.6872 0.5280 -2.5072 0.9789
4.6839 0.5568 -2.5072 0.9789
4.6804 0.5855 -2.5072 0.9789
4.6767 0.6142 -2.5072 0.9789
4.6728 0.6429 -2.5071 0.9789
4.6687 0.6715 -2.5071 0.9789
4.6645 0.7002 -2.5071 0.9789
4.6601 0.7288 -2.5071 0.9789
4.6556 0.7574 -2.5071 0.9789
4.6508 0.7859 -2.5071 0.9789
4.6459 0.8144 -2.5071 0.9789
4.6408 0.8429 -2.5071 0.9789
4.6355 0.8713 -2.5071 0.9789
4.6300 0.8998 -2.5071 0.9789
4.6244 0.9281 -2.5071 0.9789
4.6186 0.9565 -2.5070 0.9789
4.6126 0.9848 -2.5070 0.9789
4.6065 1.0131 -2.5070 0.9789
4.6002 1.0413 -2.5070 0.9789
4.5937 1.0695 -2.5070 0.9789
4.5802 1.1258 -2.5070 0.9789
4.5660 1.1819 -2.5070 0.9789
4.5511 1.2378 -2.5069 0.9789
4.5434 1.2657 -2.5069 0.9789
4.5355 1.2936 -2.5069 0.9789
4.5275 1.3213 -2.5069 0.9789
4.5193 1.3491 -2.5069 0.9789
4.5023 1.4044 -2.5069 0.9789
4.4936 1.4320 -2.5068 0.9789
4.4847 1.4595 -2.5068 0.9789
4.4756 1.4870 -2.5068 0.9789
4.4570 1.5418 -2.5068 0.9789
4.4474 1.5691 -2.5068 0.9789
4.4377 1.5964 -2.5068 0.9789
4.4278 1.6235 -2.5067 0.9789
4.4177 1.6507 -2.5067 0.9789
4.4075 1.6777 -2.5067 0.9789
4.3971 1.7047 -2.5067 0.9789
4.3865 1.7317 -2.5067 0.9789
4.3538 1.8121 -2.5066 0.9789
4.3312 1.8653 -2.5066 0.9789
4.3196 1.8918 -2.5066 0.9789
4.3079 1.9183 -2.5066 0.9789
4.2454 1.9218 -2.4770 0.9791
4.1830 1.9245 -2.4475 0.9794
4.1303 1.9310 -2.4235 0.9796
4.0836 1.9398 -2.4030 0.9797
4.0716 1.9648 -2.4030 0.9797
4.0471 2.0146 -2.4030 0.9797
4.0346 2.0394 -2.4029 0.9797
4.0220 2.0641 -2.4029 0.9797
4.0092 2.0887 -2.4029 0.9797
4.0320 2.1321 -2.4243 0.9796
3.9838 2.1380 -2.4032 0.9797
3.9700 2.1621 -2.4029 0.9797
3.9567 2.1864 -2.4028 0.9797
3.9156 2.2588 -2.4028 0.9797
3.8876 2.3066 -2.4027 0.9797
3.8733 2.3304 -2.4027 0.9797
3.8589 2.3541 -2.4027 0.9797
3.8297 2.4012 -2.4027 0.9797
3.8149 2.4247 -2.4026 0.9797
3.7999 2.4480 -2.4026 0.9797
3.7848 2.4712 -2.4026 0.9797
3.7695 2.4944 -2.4026 0.9797
3.7541 2.5174 -2.4025 0.9797
3.7385 2.5404 -2.4025 0.9797
3.7229 2.5633 -2.4025 0.9797
3.7070 2.5860 -2.4025 0.9797
3.6910 2.6087 -2.4025 0.9797
3.6749 2.6313 -2.4024 0.9797
3.6587 2.6537 -2.4024 0.9797
3.6423 2.6761 -2.4024 0.9797
3.6258 2.6984 -2.4024 0.9797
3.6091 2.7206 -2.4023 0.9797
3.5923 2.7426 -2.4023 0.9797
3.5754 2.7646 -2.4023 0.9797
3.5583 2.7864 -2.4023 0.9797
3.5412 2.8082 -2.4022 0.9797
3.5238 2.8298 -2.4022 0.9797
3.5063 2.8514 -2.4022 0.9797
3.4887 2.8728 -2.4022 0.9797
3.4710 2.8941 -2.4021 0.9797
3.4532 2.9153 -2.4021 0.9797
3.4352 2.9364 -2.4021 0.9797
3.3988 2.9783 -2.4020 0.9797
3.3804 2.9991 -2.4020 0.9797
3.3620 3.0197 -2.4020 0.9797
3.3433 3.0403 -2.4020 0.9797
3.3246 3.0607 -2.4019 0.9797
3.3057 3.0810 -2.4019 0.9797
3.2867 3.1012 -2.4019 0.9797
3.2676 3.1212 -2.4019 0.9797
3.2290 3.1610 -2.4018 0.9797
3.2095 3.1807 -2.4018 0.9797
3.1898 3.2003 -2.4018 0.9797
3.1701 3.2198 -2.4017 0.9797
3.1503 3.2392 -2.4017 0.9797
3.1303 3.2584 -2.4017 0.9797
3.1103 3.2775 -2.4016 0.9797
3.0900 3.2965 -2.4016 0.9797
3.0697 3.3153 -2.4016 0.9797
3.0287 3.3526 -2.4015 0.9797
3.0081 3.3711 -2.4015 0.9797
2.9873 3.3895 -2.4015 0.9797
2.9664 3.4077 -2.4015 0.9797
2.9454 3.4258 -2.4014 0.9797
2.9243 3.4438 -2.4014 0.9797
2.8818 3.4793 -2.4013 0.9797
2.8388 3.5143 -2.4013 0.9797
2.8171 3.5316 -2.4013 0.9797
2.7954 3.5488 -2.4012 0.9797
2.7735 3.5658 -2.4012 0.9797
2.7516 3.5827 -2.4012 0.9797
2.7295 3.5995 -2.4011 0.9797
2.7073 3.6162 -2.4011 0.9797
2.6851 3.6326 -2.4011 0.9797
2.6627 3.6490 -2.4010 0.9797
2.6402 3.6652 -2.4010 0.9797
2.6177 3.6813 -2.4010 0.9797
2.5950 3.6972 -2.4010 0.9797
2.5722 3.7131 -2.4009 0.9797
2.5493 3.7287 -2.4009 0.9797
2.5264 3.7442 -2.4009 0.9797
2.5033 3.7596 -2.4008 0.9797
2.4802 3.7749 -2.4008 0.9797
2.4570 3.7899 -2.4008 0.9797
2.4336 3.8049 -2.4007 0.9797
2.4103 3.8197 -2.4007 0.9797
2.3867 3.8344 -2.4007 0.9797
2.3631 3.8489 -2.4006 0.9797
2.3394 3.8633 -2.4006 0.9797
2.3157 3.8775 -2.4006 0.9797
2.2918 3.8916 -2.4005 0.9797
2.2679 3.9055 -2.4005 0.9797
2.2438 3.9193 -2.4005 0.9797
2.1955 3.9464 -2.4004 0.9798
2.1712 3.9598 -2.4004 0.9798
2.1469 3.9730 -2.4004 0.9798
2.1224 3.9860 -2.4003 0.9798
2.0979 3.9989 -2.4003 0.9798
2.0733 4.0116 -2.4003 0.9798
2.0486 4.0242 -2.4002 0.9798
2.0238 4.0367 -2.4002 0.9798
1.9990 4.0489 -2.4002 0.9798
1.9741 4.0611 -2.4001 0.9798
1.9491 4.0731 -2.4001 0.9798
1.9241 4.0849 -2.4001 0.9798
1.8989 4.0966 -2.4000 0.9798
1.8737 4.1081 -2.4000 0.9798
1.8485 4.1194 -2.4000 0.9798
1.8232 4.1307 -2.3999 0.9798
1.7978 4.1417 -2.3999 0.9798
1.7723 4.1526 -2.3999 0.9798
1.7468 4.1633 -2.3998 0.9798
1.7212 4.1739 -2.3998 0.9798
1.6440 4.2047 -2.3997 0.9798
1.5922 4.2244 -2.3996 0.9798
1.5663 4.2341 -2.3996 0.9798
1.5402 4.2435 -2.3996 0.9798
1.5142 4.2528 -2.3995 0.9798
1.4880 4.2620 -2.3995 0.9798
1.4618 4.2710 -2.3995 0.9798
1.4356 4.2798 -2.3994 0.9798
1.4093 4.2885 -2.3994 0.9798
1.3829 4.2970 -2.3993 0.9798
1.3565 4.3053 -2.3993 0.9798
1.3300 4.3135 -2.3993 0.9798
1.3035 4.3215 -2.3992 0.9798
1.2770 4.3294 -2.3992 0.9798
1.2504 4.3370 -2.3992 0.9798
1.1970 4.3519 -2.3991 0.9798
1.1703 4.3591 -2.3991 0.9798
1.1435 4.3662 -2.3990 0.9798
1.1167 4.3730 -2.3990 0.9798
1.0898 4.3797 -2.3990 0.9798
1.0360 4.3927 -2.3989 0.9798
1.0090 4.3989 -2.3989 0.9798
0.9488 4.3826 -2.3834 0.9799
0.9207 4.3828 -2.3804 0.9799
0.8928 4.3830 -2.3775 0.9799
0.8653 4.3855 -2.3760 0.9800
0.8463 4.4326 -2.3987 0.9798
0.8191 4.4377 -2.3986 0.9798
0.7919 4.4426 -2.3986 0.9798
0.7646 4.4473 -2.3985 0.9798
0.7373 4.4518 -2.3985 0.9798
0.7099 4.4562 -2.3985 0.9798
0.6826 4.4604 -2.3984 0.9798
0.6552 4.4644 -2.3984 0.9798
0.6278 4.4683 -2.3984 0.9798
0.6003 4.4720 -2.3983 0.9798
0.5729 4.4755 -2.3983 0.9798
0.5454 4.4789 -2.3983 0.9798
0.5179 4.4821 -2.3982 0.9798
0.4904 4.4851 -2.3982 0.9798
0.4629 4.4880 -2.3982 0.9798
0.4354 4.4907 -2.3981 0.9798
0.4078 4.4932 -2.3981 0.9798
0.3802 4.4955 -2.3981 0.9798
0.3526 4.4977 -2.3980 0.9798
0.3250 4.4997 -2.3980 0.9798
0.2974 4.5016 -2.3979 0.9798
0.2697 4.5033 -2.3979 0.9798
0.2421 4.5047 -2.3979 0.9798
0.2145 4.5061 -2.3978 0.9798
0.1868 4.5072 -2.3978 0.9798
0.1592 4.5082 -2.3978 0.9798
0.1315 4.5091 -2.3977 0.9798
0.1038 4.5097 -2.3977 0.9798
0.0762 4.5102 -2.3977 0.9798
0.0485 4.5105 -2.3976 0.9798
-0.0067 4.4008 -2.3392 0.9803
-0.0336 4.3897 -2.3333 0.9803
-0.0605 4.3899 -2.3336 0.9803
-0.0875 4.3900 -2.3339 0.9803
-0.1145 4.3928 -2.3357 0.9803
-0.1452 4.5080 -2.3974 0.9798
-0.1729 4.5069 -2.3973 0.9798
-0.2005 4.5057 -2.3973 0.9798
-0.2281 4.5044 -2.3973 0.9798
-0.2558 4.5028 -2.3972 0.9798
-0.2834 4.5011 -2.3972 0.9798
-0.3110 4.4992 -2.3972 0.9798
-0.3386 4.4971 -2.3971 0.9798
-0.3662 4.4949 -2.3971 0.9798
-0.3937 4.4925 -2.3971 0.9798
-0.4213 4.4900 -2.3970 0.9798
-0.4488 4.4875 -2.3972 0.9798
-0.4763 4.4846 -2.3971 0.9798
-0.5038 4.4815 -2.3971 0.9798
-0.5313 4.4783 -2.3971 0.9798
-0.5587 4.4749 -2.3970 0.9798
-0.5862 4.4713 -2.3970 0.9798
-0.6410 4.4637 -2.3969 0.9798
-0.6683 4.4596 -2.3969 0.9798
-0.6957 4.4553 -2.3968 0.9798
-0.7230 4.4509 -2.3968 0.9798
-0.7503 4.4463 -2.3968 0.9798
-0.7775 4.4416 -2.3967 0.9798
-0.8048 4.4367 -2.3967 0.9798
-0.8319 4.4316 -2.3967 0.9798
-0.8591 4.4263 -2.3966 0.9798
-0.8862 4.4209 -2.3966 0.9798
-0.9134 4.4153 -2.3966 0.9798
-0.9404 4.4096 -2.3965 0.9798
-0.9674 4.4037 -2.3965 0.9798
-0.9944 4.3976 -2.3965 0.9798
-1.0482 4.3849 -2.3964 0.9798
-1.0751 4.3783 -2.3964 0.9798
-1.1020 4.3716 -2.3963 0.9798
-1.1287 4.3647 -2.3963 0.9798
-1.1555 4.3576 -2.3963 0.9798
-1.1822 4.3504 -2.3962 0.9798
-1.2088 4.3430 -2.3962 0.9798
-1.2354 4.3354 -2.3962 0.9798
-1.2620 4.3277 -2.3961 0.9798
-1.2885 4.3199 -2.3961 0.9798
-1.3150 4.3118 -2.3961 0.9798
-1.3413 4.3036 -2.3960 0.9798
-1.3940 4.2867 -2.3960 0.9798
-1.4203 4.2780 -2.3959 0.9798
-1.4465 4.2692 -2.3959 0.9798
-1.4726 4.2601 -2.3959 0.9798
-1.4987 4.2510 -2.3958 0.9798
-1.5766 4.2225 -2.3957 0.9798
-1.6025 4.2127 -2.3957 0.9798
-1.6283 4.2027 -2.3957 0.9798
-1.6540 4.1926 -2.3957 0.9798
-1.6797 4.1823 -2.3956 0.9798
-1.7053 4.1719 -2.3956 0.9798
-1.7308 4.1613 -2.3956 0.9798
-1.7563 4.1505 -2.3955 0.9798
-1.7817 4.1396 -2.3955 0.9798
-1.8070 4.1286 -2.3955 0.9798
-1.8323 4.1174 -2.3954 0.9798
-1.8575 4.1060 -2.3954 0.9798
-1.8826 4.0945 -2.3954 0.9798
-1.9077 4.0828 -2.3953 0.9798
-1.9327 4.0709 -2.3953 0.9798
-1.9576 4.0590 -2.3953 0.9798
-1.9824 4.0468 -2.3952 0.9798
-2.0072 4.0345 -2.3952 0.9798
-2.0319 4.0221 -2.3952 0.9798
-2.0810 3.9967 -2.3951 0.9798
-2.1055 3.9839 -2.3951 0.9798
-2.1542 3.9576 -2.3950 0.9798
-2.1784 3.9443 -2.3950 0.9798
-2.2025 3.9308 -2.3950 0.9798
-2.2266 3.9172 -2.3950 0.9798
-2.2505 3.9034 -2.3949 0.9798
-2.2744 3.8895 -2.3949 0.9798
-2.3219 3.8612 -2.3948 0.9798
-2.3455 3.8468 -2.3948 0.9798
-2.3690 3.8323 -2.3948 0.9798
-2.3925 3.8177 -2.3948 0.9798
-2.4158 3.8029 -2.3947 0.9798
-2.4390 3.7879 -2.3947 0.9798
-2.4853 3.7576 -2.3946 0.9798
-2.5083 3.7423 -2.3946 0.9798
-2.5312 3.7267 -2.3946 0.9798
-2.5539 3.7111 -2.3946 0.9798
-2.5766 3.6953 -2.3945 0.9798
-2.6217 3.6633 -2.3945 0.9798
-2.6441 3.6471 -2.3944 0.9798
-2.6664 3.6308 -2.3944 0.9798
-2.6886 3.6144 -2.3944 0.9798
-2.7107 3.5978 -2.3944 0.9798
-2.7327 3.5810 -2.3943 0.9798
-2.7546 3.5642 -2.3943 0.9798
-2.7763 3.5471 -2.3943 0.9798
-2.7980 3.5300 -2.3943 0.9798
-2.8196 3.5127 -2.3942 0.9798
-2.8411 3.4953 -2.3942 0.9798
-2.8624 3.4778 -2.3942 0.9798
-2.8837 3.4601 -2.3942 0.9798
-2.9048 3.4424 -2.3941 0.9798
-2.9259 3.4244 -2.3941 0.9798
-2.9468 3.4064 -2.3941 0.9798
-2.9676 3.3882 -2.3941 0.9798
-2.9883 3.3699 -2.3940 0.9798
-3.0089 3.3515 -2.3940 0.9798
-3.0294 3.3329 -2.3940 0.9798
-3.0497 3.3142 -2.3940 0.9798
-3.0700 3.2954 -2.3939 0.9798
-3.0901 3.2765 -2.3939 0.9798
-3.1101 3.2575 -2.3939 0.9798
-3.1300 3.2383 -2.3939 0.9798
-3.1498 3.2190 -2.3938 0.9798
-3.1694 3.1996 -2.3938 0.9798
-3.1890 3.1800 -2.3938 0.9798
-3.2084 3.1604 -2.3938 0.9798
-3.2277 3.1406 -2.3938 0.9798
-3.2469 3.1207 -2.3937 0.9798
-3.2660 3.1007 -2.3937 0.9798
-3.2849 3.0806 -2.3937 0.9798
-3.3223 3.0400 -2.3936 0.9798
-3.3409 3.0195 -2.3936 0.9798
-3.3593 2.9989 -2.3936 0.9798
-3.3777 2.9782 -2.3936 0.9798
-3.3958 2.9574 -2.3936 0.9798
-3.4138 2.9365 -2.3935 0.9798
-3.4318 2.9155 -2.3935 0.9798
-3.4496 2.8944 -2.3935 0.9798
-2.9289 2.4270 -2.0218 0.9829
-2.9218 2.3910 -2.0068 0.9830
-2.9282 2.3664 -2.0011 0.9831
-2.9400 2.3463 -1.9994 0.9831
-2.9432 2.3195 -1.9918 0.9832
-2.9443 2.2912 -1.9830 0.9832
-2.9454 2.2632 -1.9744 0.9833
-2.9299 2.1946 -1.9458 0.9836
-2.9355 2.1708 -1.9406 0.9836
-2.9488 2.1528 -1.9406 0.9836
-2.9689 2.1396 -1.9452 0.9836
-3.0052 2.1379 -1.9603 0.9834
-3.0612 2.1497 -1.9883 0.9832
-3.0996 2.1483 -2.0046 0.9831
-3.1385 2.1469 -2.0212 0.9829
-3.1659 2.1372 -2.0303 0.9828
-3.7622 2.4732 -2.3931 0.9798
-3.7773 2.4500 -2.3931 0.9798
-3.7923 2.4268 -2.3931 0.9798
-3.8070 2.4034 -2.3931 0.9798
-3.8217 2.3800 -2.3931 0.9798
-3.8362 2.3565 -2.3931 0.9798
-3.8505 2.3329 -2.3930 0.9798
-3.8648 2.3092 -2.3930 0.9798
-3.8788 2.2855 -2.3930 0.9798
-3.9065 2.2377 -2.3930 0.9798
-3.9201 2.2137 -2.3930 0.9798
-3.9336 2.1896 -2.3929 0.9798
-3.9492 2.1666 -2.3943 0.9798
-3.9602 2.1411 -2.3929 0.9798
-3.9732 2.1168 -2.3929 0.9798
-3.9861 2.0923 -2.3929 0.9798
-3.9988 2.0678 -2.3929 0.9798
-4.0114 2.0432 -2.3929 0.9798
-4.0239 2.0186 -2.3928 0.9798
-4.0361 1.9938 -2.3928 0.9798
-4.0762 1.9826 -2.4093 0.9797
-4.1296 1.9773 -2.4337 0.9795
-4.1920 1.9757 -2.4632 0.9792
-4.2593 1.9756 -2.4956 0.9790
-4.2832 1.9232 -2.4956 0.9790
-4.2949 1.8968 -2.4956 0.9790
-4.3064 1.8704 -2.4956 0.9790
-4.3290 1.8175 -2.4956 0.9790
-4.3401 1.7908 -2.4956 0.9790
-4.3617 1.7374 -2.4955 0.9790
-4.3722 1.7106 -2.4955 0.9790
-4.3826 1.6838 -2.4955 0.9790
-4.3928 1.6568 -2.4955 0.9790
-4.4029 1.6299 -2.4955 0.9790
-4.4128 1.6028 -2.4955 0.9790
-4.4225 1.5757 -2.4955 0.9790
-4.4321 1.5486 -2.4955 0.9790
-4.4415 1.5213 -2.4955 0.9790
-4.4507 1.4940 -2.4954 0.9790
-4.4598 1.4667 -2.4954 0.9790
-4.4774 1.4119 -2.4954 0.9790
-4.4860 1.3844 -2.4954 0.9790
-4.4944 1.3568 -2.4954 0.9790
-4.5026 1.3292 -2.4954 0.9790
-4.5107 1.3016 -2.4954 0.9790
-4.5338 1.2183 -2.4954 0.9790
-4.5412 1.1905 -2.4954 0.9790
-4.5484 1.1626 -2.4954 0.9790
-4.5554 1.1346 -2.4953 0.9790
-4.5623 1.1067 -2.4953 0.9790
-4.5690 1.0787 -2.4953 0.9790
-4.5755 1.0506 -2.4953 0.9790
-4.5819 1.0225 -2.4953 0.9790
-4.5881 0.9944 -2.4953 0.9790
-4.5940 0.9662 -2.4953 0.9790
-4.5999 0.9380 -2.4953 0.9790
-4.6055 0.9098 -2.4953 0.9790
-4.6110 0.8815 -2.4953 0.9790
-4.6164 0.8532 -2.4953 0.9790
-4.6215 0.8249 -2.4953 0.9790
-4.6265 0.7965 -2.4953 0.9790
-4.6312 0.7681 -2.4953 0.9790
-4.6358 0.7397 -2.4953 0.9790
-4.6403 0.7112 -2.4953 0.9790
-4.6446 0.6827 -2.4953 0.9790
-4.6487 0.6542 -2.4953 0.9790
-4.6526 0.6257 -2.4953 0.9790
-4.6599 0.5685 -2.4953 0.9790
-4.6633 0.5399 -2.4953 0.9790
-4.6665 0.5113 -2.4953 0.9790
-4.6696 0.4827 -2.4953 0.9790
-4.6725 0.4540 -2.4953 0.9790
-4.6752 0.4254 -2.4953 0.9790
-4.6800 0.3680 -2.4953 0.9790
-4.6822 0.3393 -2.4953 0.9790
-4.6842 0.3105 -2.4953 0.9790
-4.6877 0.2530 -2.4953 0.9790
-4.6891 0.2243 -2.4953 0.9790
-4.6904 0.1955 -2.4953 0.9790
-4.6915 0.1667 -2.4953 0.9790
-4.6924 0.1379 -2.4953 0.9790
-4.6932 0.1091 -2.4953 0.9790
-4.6942 0.0515 -2.4953 0.9790
-4.6944 0.0227 -2.4953 0.9790
-4.6945 -0.0061 -2.4953 0.9790
-4.6944 -0.0349 -2.4953 0.9790
-4.6941 -0.0637 -2.4953 0.9790
-4.6936 -0.0925 -2.4953 0.9790
-4.6929 -0.1213 -2.4953 0.9790
-4.6921 -0.1501 -2.4953 0.9790
-4.6911 -0.1788 -2.4953 0.9790
-4.6900 -0.2076 -2.4953 0.9790
-4.6886 -0.2364 -2.4953 0.9790
-4.6871 -0.2651 -2.4953 0.9790
-4.6854 -0.2939 -2.4953 0.9790
-4.6835 -0.3226 -2.4953 0.9790
-4.6814 -0.3514 -2.4953 0.9790
-4.6792 -0.3801 -2.4953 0.9790
-4.6768 -0.4088 -2.4953 0.9790
-4.6742 -0.4375 -2.4953 0.9790
-4.6714 -0.4661 -2.4954 0.9790
-4.6685 -0.4948 -2.4954 0.9790
-4.6654 -0.5234 -2.4954 0.9790
-4.6621 -0.5520 -2.4954 0.9790
-4.6587 -0.5806 -2.4954 0.9790
-4.6550 -0.6092 -2.4954 0.9790
-4.6512 -0.6377 -2.4954 0.9790
-4.6472 -0.6663 -2.4954 0.9790
-4.6431 -0.6948 -2.4954 0.9790
-4.6387 -0.7232 -2.4954 0.9790
-4.6342 -0.7517 -2.4954 0.9790
-4.6295 -0.7801 -2.4954 0.9790
-4.6247 -0.8085 -2.4954 0.9790
-4.6196 -0.8369 -2.4955 0.9790
-4.6090 -0.8935 -2.4955 0.9790
-4.6035 -0.9217 -2.4955 0.9790
-4.5978 -0.9500 -2.4955 0.9790
-4.5919 -0.9782 -2.4955 0.9790
-4.5858 -1.0063 -2.4955 0.9790
-4.5796 -1.0344 -2.4955 0.9790
-4.5732 -1.0625 -2.4955 0.9790
-4.5666 -1.0906 -2.4955 0.9790
-4.5598 -1.1186 -2.4956 0.9790
-4.5529 -1.1465 -2.4956 0.9790
-4.5458 -1.1744 -2.4956 0.9790
-4.5385 -1.2023 -2.4956 0.9790
-4.5311 -1.2301 -2.4956 0.9790
-4.5235 -1.2579 -2.4956 0.9790
-4.4996 -1.3410 -2.4957 0.9790
-4.4914 -1.3686 -2.4957 0.9790
-4.4829 -1.3961 -2.4957 0.9790
-4.4743 -1.4236 -2.4957 0.9790
-4.4655 -1.4510 -2.4957 0.9790
-4.4565 -1.4784 -2.4957 0.9790
-4.4474 -1.5057 -2.4957 0.9790
-4.4381 -1.5330 -2.4958 0.9790
-4.4287 -1.5602 -2.4958 0.9790
-4.4190 -1.5874 -2.4958 0.9790
-4.4092 -1.6144 -2.4958 0.9790
-4.3992 -1.6415 -2.4958 0.9790
-4.3788 -1.6953 -2.4958 0.9790
-4.3684 -1.7222 -2.4959 0.9790
-4.3470 -1.7757 -2.4959 0.9790
-4.3360 -1.8023 -2.4959 0.9790
-4.3249 -1.8289 -2.4959 0.9790
-4.3136 -1.8554 -2.4959 0.9790
-4.3022 -1.8819 -2.4960 0.9790
-4.2906 -1.9082 -2.4960 0.9790
-4.2788 -1.9345 -2.4960 0.9790
-4.2548 -1.9869 -2.4960 0.9790
-4.2426 -2.0130 -2.4961 0.9790
-4.2302 -2.0390 -2.4961 0.9790
-4.2176 -2.0649 -2.4961 0.9790
-4.2049 -2.0908 -2.4961 0.9790
-4.1790 -2.1422 -2.4961 0.9790
-4.1658 -2.1679 -2.4962 0.9790
-4.1525 -2.1934 -2.4962 0.9790
-4.1390 -2.2188 -2.4962 0.9790
-4.1116 -2.2695 -2.4962 0.9790
-4.0976 -2.2947 -2.4963 0.9790
-4.0834 -2.3198 -2.4963 0.9790
-4.0402 -2.3946 -2.4963 0.9789
-4.0105 -2.4441 -2.4964 0.9789
-3.9955 -2.4686 -2.4964 0.9789
-3.9803 -2.4931 -2.4964 0.9789
-3.9495 -2.5418 -2.4965 0.9789
-3.9339 -2.5660 -2.4965 0.9789
-3.9181 -2.5901 -2.4965 0.9789
-3.9022 -2.6142 -2.4965 0.9789
-3.8861 -2.6381 -2.4966 0.9789
-3.8698 -2.6619 -2.4966 0.9789
-3.8535 -2.6856 -2.4966 0.9789
-3.8370 -2.7092 -2.4966 0.9789
-3.8203 -2.7327 -2.4967 0.9789
-3.8035 -2.7561 -2.4967 0.9789
-3.7866 -2.7795 -2.4967 0.9789
-3.7695 -2.8027 -2.4967 0.9789
-3.7522 -2.8258 -2.4968 0.9789
-3.7349 -2.8487 -2.4968 0.9789
-3.7174 -2.8716 -2.4968 0.9789
-3.6997 -2.8944 -2.4968 0.9789
-3.6819 -2.9171 -2.4969 0.9789
-3.6640 -2.9397 -2.4969 0.9789
-3.6459 -2.9621 -2.4969 0.9789
-3.6277 -2.9844 -2.4969 0.9789
-3.6094 -3.0067 -2.4970 0.9789
-3.5909 -3.0288 -2.4970 0.9789
-3.5723 -3.0508 -2.4970 0.9789
-3.5536 -3.0727 -2.4970 0.9789
-3.5347 -3.0945 -2.4971 0.9789
-3.5157 -3.1161 -2.4971 0.9789
-3.4772 -3.1591 -2.4971 0.9789
-3.4383 -3.2016 -2.4972 0.9789
-3.4186 -3.2227 -2.4972 0.9789
-3.3789 -3.2644 -2.4973 0.9789
-3.3387 -3.3057 -2.4973 0.9789
-3.3184 -3.3262 -2.4974 0.9789
-3.2979 -3.3465 -2.4974 0.9789
-3.2774 -3.3667 -2.4974 0.9789
-3.2567 -3.3868 -2.4974 0.9789
-3.2359 -3.4068 -2.4975 0.9789
-3.2150 -3.4266 -2.4975 0.9789
-3.1939 -3.4463 -2.4975 0.9789
-3.1728 -3.4658 -2.4976 0.9789
-3.1515 -3.4853 -2.4976 0.9789
-3.1301 -3.5046 -2.4976 0.9789
-3.1085 -3.5238 -2.4976 0.9789
-3.0869 -3.5428 -2.4977 0.9789
-3.0652 -3.5617 -2.4977 0.9789
-3.0213 -3.5992 -2.4978 0.9789
-2.9992 -3.6177 -2.4978 0.9789
-2.9322 -3.6724 -2.4979 0.9789
-2.9096 -3.6904 -2.4979 0.9789
-2.8642 -3.7259 -2.4980 0.9789
-2.8413 -3.7434 -2.4980 0.9789
-2.8184 -3.7608 -2.4980 0.9789
-2.7953 -3.7781 -2.4981 0.9789
-0.7324 4.3160 -2.3968 0.9802
-0.7588 4.3114 -2.3968 0.9802
-0.7853 4.3066 -2.3967 0.9802
-0.8117 4.3016 -2.3967 0.9802
-0.8380 4.2965 -2.3967 0.9802
-0.8644 4.2912 -2.3966 0.9802
-0.8907 4.2858 -2.3966 0.9802
-0.9169 4.2802 -2.3966 0.9802
-0.9432 4.2744 -2.3966 0.9802
-0.9693 4.2685 -2.3965 0.9802
-0.9955 4.2624 -2.3965 0.9802
-1.0216 4.2562 -2.3965 0.9802
-1.0477 4.2498 -2.3964 0.9802
-1.0738 4.2432 -2.3964 0.9802
-1.0997 4.2365 -2.3964 0.9802
-1.1257 4.2296 -2.3963 0.9802
-1.1775 4.2154 -2.3963 0.9802
-1.2033 4.2080 -2.3962 0.9802
-1.2290 4.2005 -2.3962 0.9802
-1.2548 4.1928 -2.3962 0.9802
-1.2805 4.1850 -2.3961 0.9802
-1.3061 4.1770 -2.3961 0.9802
-1.3317 4.1688 -2.3961 0.9802
-1.3572 4.1605 -2.3960 0.9802
-1.3827 4.1521 -2.3960 0.9802
-1.4081 4.1434 -2.3960 0.9802
-1.4335 4.1347 -2.3959 0.9802
-1.4588 4.1258 -2.3959 0.9802
-1.4841 4.1167 -2.3959 0.9802
-1.5093 4.1074 -2.3958 0.9802
-1.5345 4.0981 -2.3958 0.9802
-1.5596 4.0885 -2.3958 0.9802
-1.5846 4.0788 -2.3958 0.9802
-1.6096 4.0689 -2.3957 0.9802
-1.6345 4.0589 -2.3957 0.9802
-1.6841 4.0385 -2.3956 0.9802
-1.7088 4.0280 -2.3956 0.9802
-1.7335 4.0174 -2.3956 0.9802
-1.7580 4.0067 -2.3955 0.9802
-1.7826 3.9957 -2.3955 0.9802
-1.8071 3.9847 -2.3955 0.9802
-1.8315 3.9735 -2.3954 0.9802
-1.8558 3.9621 -2.3954 0.9802
-1.8800 3.9506 -2.3954 0.9802
-1.9042 3.9389 -2.3954 0.9802
-1.9283 3.9271 -2.3953 0.9802
-1.9523 3.9152 -2.3953 0.9802
-2.0002 3.8908 -2.3952 0.9802
-2.0240 3.8784 -2.3952 0.9802
-2.0477 3.8659 -2.3952 0.9802
-2.0713 3.8532 -2.3952 0.9802
-2.0949 3.8404 -2.3951 0.9802
-2.1184 3.8274 -2.3951 0.9802
-2.1419 3.8143 -2.3951 0.9802
-2.1652 3.8011 -2.3950 0.9802
-2.1884 3.7877 -2.3950 0.9802
-2.2116 3.7741 -2.3950 0.9802
-2.2347 3.7604 -2.3950 0.9802
-2.2577 3.7466 -2.3949 0.9802
-2.2806 3.7327 -2.3949 0.9802
-2.3034 3.7185 -2.3949 0.9803
-2.3262 3.7043 -2.3948 0.9803
-2.3488 3.6899 -2.3948 0.9803
-2.3714 3.6754 -2.3948 0.9803
-2.3939 3.6607 -2.3948 0.9803
-2.4163 3.6459 -2.3947 0.9803
-2.4386 3.6310 -2.3947 0.9803
-2.4608 3.6159 -2.3947 0.9803
-2.4829 3.6007 -2.3947 0.9803
-2.5049 3.5854 -2.3946 0.9803
-2.5268 3.5699 -2.3946 0.9803
-2.5487 3.5543 -2.3946 0.9803
-2.5704 3.5386 -2.3946 0.9803
-2.5920 3.5227 -2.3945 0.9803
-2.6136 3.5067 -2.3945 0.9803
-2.6350 3.4906 -2.3945 0.9803
-2.6563 3.4743 -2.3944 0.9803
-2.6775 3.4579 -2.3944 0.9803
-2.6987 3.4414 -2.3944 0.9803
-2.7197 3.4247 -2.3944 0.9803
-2.7406 3.4079 -2.3943 0.9803
-2.7615 3.3910 -2.3943 0.9803
-2.7822 3.3740 -2.3943 0.9803
-2.8233 3.3395 -2.3942 0.9803
-2.8437 3.3221 -2.3942 0.9803
-2.8640 3.3046 -2.3942 0.9803
-2.8842 3.2869 -2.3942 0.9803
-2.9043 3.2691 -2.3942 0.9803
-2.9243 3.2512 -2.3941 0.9803
-2.9441 3.2331 -2.3941 0.9803
-2.9639 3.2150 -2.3941 0.9803
-2.9835 3.1967 -2.3941 0.9803
-3.0031 3.1783 -2.3940 0.9803
-3.0225 3.1598 -2.3940 0.9803
-3.0418 3.1412 -2.3940 0.9803
-3.0610 3.1224 -2.3940 0.9803
-3.0990 3.0846 -2.3939 0.9803
-3.1178 3.0655 -2.3939 0.9803
-3.1552 3.0269 -2.3939 0.9803
-3.1736 3.0075 -2.3938 0.9803
-3.1920 2.9879 -2.3938 0.9803
-3.2102 2.9683 -2.3938 0.9803
-3.2284 2.9485 -2.3938 0.9803
-3.2463 2.9286 -2.3937 0.9803
-3.2642 2.9086 -2.3937 0.9803
-3.2820 2.8885 -2.3937 0.9803
-3.2996 2.8683 -2.3937 0.9803
-3.3171 2.8480 -2.3937 0.9803
-3.3345 2.8275 -2.3936 0.9803
-3.3518 2.8070 -2.3936 0.9803
-2.9156 2.4115 -2.0715 0.9829
-2.9269 2.3609 -2.0588 0.9830
-2.9365 2.3391 -2.0555 0.9830
-2.9377 2.3107 -2.0463 0.9831
-2.9388 2.2825 -2.0373 0.9832
-2.9399 2.2546 -2.0285 0.9832
-2.9243 2.1862 -1.9990 0.9835
-2.9311 2.1634 -1.9946 0.9835
-2.9450 2.1459 -1.9950 0.9835
-2.9656 2.1331 -2.0001 0.9835
-3.0028 2.1321 -2.0163 0.9833
-3.0590 2.1439 -2.0452 0.9831
-3.0973 2.1425 -2.0619 0.9830
-3.1362 2.1410 -2.0790 0.9828
-3.1657 2.1328 -2.0899 0.9827
-3.1926 2.1226 -2.0990 0.9827
-3.6549 2.3978 -2.3933 0.9803
-3.6840 2.3527 -2.3932 0.9803
-3.6984 2.3301 -2.3932 0.9803
-3.7126 2.3073 -2.3932 0.9803
-3.7266 2.2845 -2.3932 0.9803
-3.7405 2.2616 -2.3932 0.9803
-3.7679 2.2155 -2.3932 0.9803
-3.7815 2.1923 -2.3931 0.9803
-3.7948 2.1691 -2.3931 0.9803
-3.8365 2.1618 -2.4110 0.9801
-3.8211 2.1223 -2.3931 0.9803
-3.8341 2.0988 -2.3931 0.9803
-3.8843 2.0041 -2.3930 0.9803
-3.9042 1.9841 -2.3977 0.9802
-3.9542 1.9791 -2.4209 0.9800
-4.0060 1.9744 -2.4452 0.9798
-4.1134 1.9649 -2.4958 0.9794
-4.1253 1.9396 -2.4958 0.9794
-4.1371 1.9143 -2.4958 0.9794
-4.1487 1.8889 -2.4958 0.9794
-4.1603 1.8633 -2.4958 0.9794
-4.1716 1.8378 -2.4958 0.9794
-4.1828 1.8122 -2.4958 0.9794
-4.1938 1.7864 -2.4957 0.9794
-4.2046 1.7607 -2.4957 0.9794
-4.2153 1.7348 -2.4957 0.9794
-4.2259 1.7089 -2.4957 0.9794
-4.2363 1.6830 -2.4957 0.9794
-4.2465 1.6569 -2.4957 0.9794
-4.2565 1.6309 -2.4957 0.9794
-4.2665 1.6047 -2.4957 0.9794
-4.2762 1.5785 -2.4957 0.9794
-4.2858 1.5522 -2.4956 0.9794
-4.2952 1.5259 -2.4956 0.9794
-4.3045 1.4995 -2.4956 0.9794
-4.3136 1.4731 -2.4956 0.9794
-4.3225 1.4466 -2.4956 0.9794
-4.3313 1.4200 -2.4956 0.9794
-4.3399 1.3934 -2.4956 0.9794
-4.3484 1.3668 -2.4956 0.9794
-4.3567 1.3400 -2.4956 0.9794
-4.3648 1.3133 -2.4956 0.9794
-4.3728 1.2865 -2.4956 0.9794
-4.3806 1.2596 -2.4956 0.9794
-4.3882 1.2327 -2.4956 0.9794
-4.3957 1.2058 -2.4955 0.9794
-4.4030 1.1788 -2.4955 0.9794
-4.4101 1.1518 -2.4955 0.9794
-4.4171 1.1247 -2.4955 0.9794
-4.4239 1.0976 -2.4955 0.9794
-4.4305 1.0704 -2.4955 0.9794
-4.4370 1.0432 -2.4955 0.9794
-4.4495 0.9887 -2.4955 0.9794
-4.4554 0.9613 -2.4955 0.9794
-4.4612 0.9340 -2.4955 0.9794
-4.4669 0.9066 -2.4955 0.9794
-4.4723 0.8792 -2.4955 0.9794
-4.4776 0.8517 -2.4955 0.9794
-4.4828 0.8242 -2.4955 0.9794
-4.4925 0.7692 -2.4955 0.9794
-4.4972 0.7416 -2.4955 0.9794
-4.5016 0.7140 -2.4955 0.9794
-4.5059 0.6864 -2.4955 0.9794
-4.5100 0.6587 -2.4955 0.9794
-4.5214 0.5756 -2.4954 0.9794
-4.5248 0.5478 -2.4954 0.9794
-4.5281 0.5201 -2.4954 0.9794
-4.5312 0.4923 -2.4954 0.9794
-4.5342 0.4645 -2.4954 0.9794
-4.5369 0.4367 -2.4954 0.9794
-4.5395 0.4088 -2.4954 0.9794
-4.5419 0.3809 -2.4954 0.9794
-4.5442 0.3531 -2.4954 0.9794
-4.5462 0.3252 -2.4954 0.9794
-4.5482 0.2973 -2.4954 0.9794
-4.5499 0.2694 -2.4954 0.9794
-4.5515 0.2414 -2.4954 0.9794
-4.5529 0.2135 -2.4954 0.9794
-4.5541 0.1856 -2.4954 0.9794
-4.5551 0.1577 -2.4954 0.9794
-4.5560 0.1297 -2.4954 0.9794
-4.5567 0.1018 -2.4954 0.9794
-4.5573 0.0738 -2.4954 0.9794
-4.5579 0.0179 -2.4955 0.9794
-4.5579 -0.0101 -2.4955 0.9794
-4.5577 -0.0380 -2.4955 0.9794
-4.5574 -0.0660 -2.4955 0.9794
-4.5563 -0.1219 -2.4955 0.9794
-4.5555 -0.1499 -2.4955 0.9794
-4.5545 -0.1778 -2.4955 0.9794
-4.5520 -0.2337 -2.4955 0.9794
-4.5504 -0.2616 -2.4955 0.9794
-4.5487 -0.2895 -2.4955 0.9794
-4.5469 -0.3174 -2.4955 0.9794
-4.5449 -0.3453 -2.4955 0.9794
-4.5427 -0.3732 -2.4955 0.9794
-4.5403 -0.4011 -2.4955 0.9794
-4.5378 -0.4289 -2.4955 0.9794
-4.5351 -0.4568 -2.4955 0.9794
-4.5322 -0.4846 -2.4955 0.9794
-4.5292 -0.5124 -2.4955 0.9794
-4.5260 -0.5401 -2.4955 0.9794
-4.5226 -0.5679 -2.4956 0.9794
-4.5190 -0.5956 -2.4956 0.9794
-4.5153 -0.6234 -2.4956 0.9794
-4.5114 -0.6510 -2.4956 0.9794
-4.5073 -0.6787 -2.4956 0.9794
-4.5031 -0.7064 -2.4956 0.9794
-4.4987 -0.7340 -2.4956 0.9794
-4.4941 -0.7616 -2.4956 0.9794
-4.4894 -0.7891 -2.4956 0.9794
-4.4844 -0.8166 -2.4956 0.9794
-4.4794 -0.8442 -2.4956 0.9794
-4.4741 -0.8716 -2.4956 0.9794
-4.4631 -0.9265 -2.4957 0.9794
-4.4574 -0.9538 -2.4957 0.9794
-4.4515 -0.9812 -2.4957 0.9794
-4.4454 -1.0084 -2.4957 0.9794
-4.4391 -1.0357 -2.4957 0.9794
-4.4327 -1.0629 -2.4957 0.9794
-4.4262 -1.0901 -2.4957 0.9794
-4.4194 -1.1172 -2.4957 0.9794
-4.4125 -1.1443 -2.4958 0.9794
-4.4054 -1.1714 -2.4958 0.9794
-4.3981 -1.1984 -2.4958 0.9794
-4.3907 -1.2254 -2.4958 0.9794
-4.3831 -1.2523 -2.4958 0.9794
-4.3754 -1.2792 -2.4958 0.9794
-4.3675 -1.3060 -2.4958 0.9794
-4.3594 -1.3328 -2.4958 0.9794
-4.3512 -1.3595 -2.4959 0.9794
-4.3428 -1.3862 -2.4959 0.9794
-4.3342 -1.4128 -2.4959 0.9794
-4.3255 -1.4394 -2.4959 0.9794
-4.3166 -1.4659 -2.4959 0.9794
-4.3075 -1.4924 -2.4959 0.9794
-4.2983 -1.5187 -2.4959 0.9794
-4.2890 -1.5451 -2.4959 0.9794
-4.2697 -1.5976 -2.4960 0.9794
-4.2599 -1.6238 -2.4960 0.9794
-4.2499 -1.6499 -2.4960 0.9794
-4.2294 -1.7020 -2.4960 0.9794
-4.2188 -1.7279 -2.4961 0.9794
-4.1974 -1.7795 -2.4961 0.9794
-4.1864 -1.8053 -2.4961 0.9794
-4.1753 -1.8309 -2.4961 0.9794
-4.1640 -1.8565 -2.4961 0.9794
-4.1526 -1.8821 -2.4962 0.9794
-4.1410 -1.9075 -2.4962 0.9794
-4.1292 -1.9329 -2.4962 0.9794
-4.1173 -1.9582 -2.4962 0.9794
-4.1053 -1.9834 -2.4962 0.9794
-4.0931 -2.0086 -2.4962 0.9794
-4.0807 -2.0337 -2.4963 0.9794
-4.0682 -2.0587 -2.4963 0.9794
-4.0555 -2.0836 -2.4963 0.9794
-4.0427 -2.1085 -2.4963 0.9794
-4.0297 -2.1333 -2.4963 0.9794
-4.0166 -2.1580 -2.4964 0.9794
-4.0033 -2.1826 -2.4964 0.9794
-3.9898 -2.2071 -2.4964 0.9794
-3.9762 -2.2316 -2.4964 0.9794
-3.9625 -2.2559 -2.4964 0.9794
-3.9486 -2.2802 -2.4965 0.9794
-3.9346 -2.3044 -2.4965 0.9794
-3.9204 -2.3285 -2.4965 0.9794
-3.9061 -2.3526 -2.4965 0.9794
-3.8916 -2.3765 -2.4965 0.9794
-3.8770 -2.4004 -2.4966 0.9794
-3.8622 -2.4241 -2.4966 0.9794
-3.8473 -2.4478 -2.4966 0.9794
-3.8322 -2.4714 -2.4966 0.9794
-3.8170 -2.4949 -2.4966 0.9794
-3.8017 -2.5182 -2.4967 0.9794
-3.7862 -2.5415 -2.4967 0.9794
-3.7706 -2.5647 -2.4967 0.9794
-3.7548 -2.5879 -2.4967 0.9794
-3.7389 -2.6109 -2.4968 0.9794
-3.7229 -2.6338 -2.4968 0.9794
-3.7067 -2.6566 -2.4968 0.9794
-3.6903 -2.6793 -2.4968 0.9794
-3.6572 -2.7244 -2.4969 0.9794
-3.6405 -2.7469 -2.4969 0.9794
-3.6236 -2.7692 -2.4969 0.9794
-3.6066 -2.7914 -2.4969 0.9794
-3.5894 -2.8135 -2.4970 0.9794
-3.5721 -2.8354 -2.4970 0.9794
-3.5547 -2.8573 -2.4970 0.9794
-3.5194 -2.9008 -2.4971 0.9794
-3.5016 -2.9224 -2.4971 0.9794
-3.4837 -2.9438 -2.4971 0.9794
-3.4473 -2.9864 -2.4972 0.9794
-3.4290 -3.0075 -2.4972 0.9794
-3.4105 -3.0285 -2.4972 0.9794
-3.3919 -3.0494 -2.4972 0.9794
-3.3731 -3.0702 -2.4973 0.9794
-3.3543 -3.0909 -2.4973 0.9794
-3.3353 -3.1114 -2.4973 0.9794
-3.3162 -3.1319 -2.4973 0.9794
-3.2776 -3.1724 -2.4974 0.9794
-3.2581 -3.1925 -2.4974 0.9794
-3.1989 -3.2520 -2.4975 0.9794
-3.1789 -3.2716 -2.4975 0.9794
-3.1588 -3.2911 -2.4976 0.9794
-3.1386 -3.3104 -2.4976 0.9794
-3.1183 -3.3297 -2.4976 0.9794
-3.0978 -3.3488 -2.4976 0.9794
-3.0772 -3.3677 -2.4977 0.9794
-3.0566 -3.3866 -2.4977 0.9794
-3.0358 -3.4053 -2.4977 0.9794
-3.0148 -3.4239 -2.4978 0.9794
-2.9938 -3.4424 -2.4978 0.9794
-2.9514 -3.4790 -2.4978 0.9794
-2.9300 -3.4971 -2.4979 0.9794
-2.9086 -3.5150 -2.4979 0.9794
-2.8653 -3.5505 -2.4980 0.9794
-2.8435 -3.5681 -2.4980 0.9794
-2.8216 -3.5855 -2.4980 0.9794
-2.7996 -3.6028 -2.4980 0.9794
-2.7774 -3.6199 -2.4981 0.9794
-2.7552 -3.6369 -2.4981 0.9794
-2.7105 -3.6705 -2.4982 0.9794
-2.6879 -3.6872 -2.4982 0.9794
-2.6653 -3.7036 -2.4982 0.9794
-2.6426 -3.7199 -2.4983 0.9794
-2.6197 -3.7361 -2.4983 0.9794
-2.5968 -3.7522 -2.4983 0.9794
-2.5737 -3.7681 -2.4983 0.9794
-2.5506 -3.7839 -2.4984 0.9794
-2.5274 -3.7995 -2.4984 0.9794
-2.5040 -3.8150 -2.4984 0.9794
-2.4806 -3.8303 -2.4985 0.9794
-2.4571 -3.8455 -2.4985 0.9794
-2.4335 -3.8605 -2.4985 0.9794
-2.3860 -3.8902 -2.4986 0.9794
-2.3621 -3.9048 -2.4986 0.9794
-2.3381 -3.9193 -2.4987 0.9794
-2.3141 -3.9336 -2.4987 0.9794
-2.2899 -3.9478 -2.4987 0.9794
-2.2657 -3.9618 -2.4988 0.9794
-2.2414 -3.9757 -2.4988 0.9794
-2.2170 -3.9894 -2.4988 0.9794
-2.1925 -4.0030 -2.4989 0.9794
-2.1679 -4.0164 -2.4989 0.9794
-2.1433 -4.0297 -2.4989 0.9794
-2.1185 -4.0428 -2.4990 0.9794
-2.0937 -4.0558 -2.4990 0.9794
-2.0688 -4.0686 -2.4990 0.9794
-2.0438 -4.0813 -2.4991 0.9794
-2.0188 -4.0938 -2.4991 0.9794
-1.9937 -4.1062 -2.4991 0.9794
-1.9685 -4.1184 -2.4992 0.9794
-1.9432 -4.1304 -2.4992 0.9794
-1.9179 -4.1424 -2.4992 0.9794
-1.8924 -4.1541 -2.4993 0.9794
-1.8670 -4.1657 -2.4993 0.9794
-1.8157 -4.1884 -2.4994 0.9794
-1.7643 -4.2105 -2.4994 0.9794
-1.7384 -4.2213 -2.4995 0.9794
-1.7125 -4.2319 -2.4995 0.9794
-1.6865 -4.2424 -2.4995 0.9794
-1.6605 -4.2527 -2.4996 0.9794
-1.6344 -4.2629 -2.4996 0.9794
-1.6082 -4.2729 -2.4996 0.9794
-1.5820 -4.2827 -2.4997 0.9794
-1.5557 -4.2924 -2.4997 0.9794
-1.5030 -4.3113 -2.4998 0.9794
-1.4765 -4.3205 -2.4998 0.9794
-1.4500 -4.3295 -2.4998 0.9794
-1.4234 -4.3384 -2.4999 0.9794
-1.3968 -4.3471 -2.4999 0.9794
-1.3701 -4.3557 -2.4999 0.9794
-1.3434 -4.3640 -2.5000 0.9794
-1.2898 -4.3803 -2.5000 0.9794
-1.2629 -4.3882 -2.5001 0.9794
-1.2360 -4.3959 -2.5001 0.9794
-1.2090 -4.4035 -2.5001 0.9794
-1.1820 -4.4109 -2.5002 0.9794
-1.1549 -4.4181 -2.5002 0.9794
-1.1278 -4.4252 -2.5003 0.9794
-1.1007 -4.4321 -2.5003 0.9794
-1.0735 -4.4388 -2.5003 0.9794
-1.0462 -4.4454 -2.5004 0.9794
-1.0190 -4.4518 -2.5004 0.9794
-0.9916 -4.4580 -2.5004 0.9794
-0.9643 -4.4641 -2.5005 0.9794
-0.9369 -4.4700 -2.5005 0.9794
-0.9095 -4.4757 -2.5005 0.9794
-0.8820 -4.4813 -2.5006 0.9794
-0.8545 -4.4867 -2.5006 0.9794
-0.8270 -4.4919 -2.5006 0.9794
-0.7994 -4.4969 -2.5007 0.9794
-0.7718 -4.5018 -2.5007 0.9794
-0.7442 -4.5065 -2.5007 0.9794
-0.7165 -4.5111 -2.5008 0.9794
-0.6888 -4.5154 -2.5008 0.9794
-0.6334 -4.5237 -2.5009 0.9794
-0.6057 -4.5276 -2.5009 0.9794
-0.5501 -4.5348 -2.5010 0.9794
-0.4945 -4.5413 -2.5011 0.9794
-0.4108 -4.5499 -2.5012 0.9794
-0.3829 -4.5523 -2.5012 0.9794
-0.3549 -4.5547 -2.5013 0.9794
-0.3270 -4.5568 -2.5013 0.9794
-0.2990 -4.5588 -2.5013 0.9794
-0.2431 -4.5623 -2.5014 0.9794
-0.2151 -4.5637 -2.5014 0.9794
-0.1871 -4.5650 -2.5015 0.9794
-0.1591 -4.5662 -2.5015 0.9794
-0.1311 -4.5671 -2.5015 0.9794
-0.1030 -4.5679 -2.5016 0.9794
-0.0750 -4.5685 -2.5016 0.9794
-0.0470 -4.5690 -2.5016 0.9794
-0.0190 -4.5692 -2.5017 0.9794
0.0091 -4.5693 -2.5017 0.9794
0.0371 -4.5692 -2.5018 0.9794
0.0651 -4.5690 -2.5018 0.9794
0.0932 -4.5686 -2.5018 0.9794
0.1212 -4.5680 -2.5019 0.9794
0.1492 -4.5672 -2.5019 0.9794
0.1772 -4.5663 -2.5019 0.9794
0.2052 -4.5652 -2.5020 0.9794
0.2613 -4.5624 -2.5020 0.9794
0.2892 -4.5608 -2.5021 0.9794
0.3172 -4.5590 -2.5021 0.9794
0.3452 -4.5571 -2.5021 0.9794
0.3732 -4.5549 -2.5022 0.9794
0.4011 -4.5526 -2.5022 0.9794
0.4290 -4.5501 -2.5022 0.9794
0.4569 -4.5475 -2.5023 0.9794
0.4848 -4.5446 -2.5023 0.9794
0.5127 -4.5417 -2.5024 0.9794
0.5684 -4.5351 -2.5024 0.9794
0.5962 -4.5316 -2.5025 0.9794
0.6240 -4.5279 -2.5025 0.9794
0.6518 -4.5241 -2.5025 0.9794
0.6796 -4.5201 -2.5026 0.9794
0.7073 -4.5159 -2.5026 0.9794
0.7350 -4.5115 -2.5026 0.9794
0.7627 -4.5070 -2.5027 0.9794
0.7903 -4.5023 -2.5027 0.9794
0.8179 -4.4974 -2.5027 0.9794
0.8455 -4.4924 -2.5028 0.9794
0.8731 -4.4872 -2.5028 0.9794
0.9281 -4.4762 -2.5029 0.9794
0.9555 -4.4705 -2.5029 0.9794
0.9830 -4.4646 -2.5029 0.9794
1.0104 -4.4586 -2.5030 0.9794
1.0377 -4.4524 -2.5030 0.9794
1.0650 -4.4460 -2.5030 0.9794
1.0923 -4.4394 -2.5031 0.9794
1.1195 -4.4327 -2.5031 0.9794
1.1467 -4.4258 -2.5031 0.9794
1.1738 -4.4187 -2.5032 0.9794
1.2010 -4.4115 -2.5032 0.9794
1.2280 -4.4041 -2.5033 0.9794
1.2550 -4.3966 -2.5033 0.9794
1.2820 -4.3888 -2.5033 0.9794
1.3089 -4.3810 -2.5034 0.9794
1.3358 -4.3729 -2.5034 0.9794
1.3626 -4.3647 -2.5034 0.9794
1.3894 -4.3563 -2.5035 0.9794
1.4161 -4.3477 -2.5035 0.9794
1.4428 -4.3391 -2.5035 0.9794
1.4694 -4.3302 -2.5036 0.9794
1.5225 -4.3119 -2.5036 0.9794
1.5489 -4.3026 -2.5036 0.9794
1.5753 -4.2930 -2.5037 0.9794
1.6016 -4.2833 -2.5037 0.9794
1.6278 -4.2735 -2.5037 0.9794
