ply
format ascii 1.0
element vertex 1544
property float32 x
property float32 y
property float32 z
property float32 I
end_header
-7.3573 -5.5381 -2.5082 0.9625
-7.3232 -5.5830 -2.5082 0.9625
-7.2888 -5.6277 -2.5082 0.9625
-7.2541 -5.6722 -2.5081 0.9625
-7.2191 -5.7164 -2.5081 0.9625
-7.1839 -5.7605 -2.5081 0.9625
-7.1484 -5.8043 -2.5080 0.9625
-7.1126 -5.8479 -2.5080 0.9625
-7.0766 -5.8913 -2.5080 0.9625
-7.0402 -5.9345 -2.5080 0.9625
-7.0037 -5.9775 -2.5079 0.9625
-6.9668 -6.0202 -2.5079 0.9625
-6.9297 -6.0627 -2.5079 0.9625
-6.8574 -6.0740 -2.4951 0.9627
-6.7736 -6.0742 -2.4781 0.9630
-6.6821 -6.0664 -2.4582 0.9633
-6.5269 -6.0730 -2.4283 0.9637
-6.4510 -6.0765 -2.4138 0.9639
-6.3883 -6.0918 -2.4043 0.9641
-6.3508 -6.1308 -2.4043 0.9641
-6.3131 -6.1695 -2.4043 0.9641
-6.2751 -6.2080 -2.4042 0.9641
-6.2501 -6.2595 -2.4093 0.9640
-6.1984 -6.2842 -2.4042 0.9641
-6.1597 -6.3220 -2.4041 0.9641
-6.1208 -6.3595 -2.4041 0.9641
-6.0816 -6.3968 -2.4041 0.9641
-6.0422 -6.4338 -2.4040 0.9641
-6.0026 -6.4707 -2.4040 0.9641
-5.9627 -6.5072 -2.4040 0.9641
-5.8824 -6.5796 -2.4039 0.9641
-5.8419 -6.6154 -2.4039 0.9641
-5.8012 -6.6510 -2.4038 0.9641
-5.7602 -6.6863 -2.4038 0.9641
-5.7191 -6.7214 -2.4038 0.9641
-5.6777 -6.7562 -2.4037 0.9641
-5.6361 -6.7907 -2.4037 0.9641
-5.5943 -6.8250 -2.4036 0.9641
-5.5523 -6.8591 -2.4036 0.9641
-5.5101 -6.8929 -2.4036 0.9641
-5.4677 -6.9264 -2.4035 0.9641
-5.4251 -6.9596 -2.4035 0.9641
-5.3823 -6.9926 -2.4035 0.9641
-5.2960 -7.0578 -2.4034 0.9641
-5.2526 -7.0900 -2.4034 0.9641
-5.2090 -7.1220 -2.4033 0.9641
-5.1212 -7.1850 -2.4032 0.9641
-5.0770 -7.2161 -2.4032 0.9641
-5.0326 -7.2470 -2.4032 0.9641
-4.9880 -7.2776 -2.4031 0.9641
-4.9433 -7.3079 -2.4031 0.9641
-4.8983 -7.3379 -2.4030 0.9641
-4.8532 -7.3677 -2.4030 0.9641
-4.7624 -7.4264 -2.4029 0.9641
-4.7168 -7.4553 -2.4029 0.9641
-4.6249 -7.5122 -2.4028 0.9641
-4.5787 -7.5403 -2.4028 0.9641
-4.5324 -7.5681 -2.4027 0.9641
-4.4858 -7.5956 -2.4027 0.9641
-4.4392 -7.6228 -2.4027 0.9641
-4.3923 -7.6497 -2.4026 0.9641
-4.3453 -7.6764 -2.4026 0.9641
-4.2981 -7.7027 -2.4025 0.9641
-4.2033 -7.7546 -2.4025 0.9641
-4.1556 -7.7800 -2.4024 0.9641
-4.1078 -7.8052 -2.4024 0.9641
-4.0598 -7.8301 -2.4023 0.9641
-4.0117 -7.8547 -2.4023 0.9641
-3.9635 -7.8790 -2.4023 0.9641
-3.8665 -7.9267 -2.4022 0.9641
-3.8178 -7.9501 -2.4021 0.9641
-3.7200 -7.9960 -2.4020 0.9641
-3.6708 -8.0185 -2.4020 0.9641
-3.6216 -8.0407 -2.4020 0.9641
-3.5722 -8.0626 -2.4019 0.9641
-3.5227 -8.0842 -2.4019 0.9641
-3.4730 -8.1055 -2.4018 0.9641
-3.4232 -8.1264 -2.4018 0.9641
-3.3734 -8.1471 -2.4018 0.9641
-3.2731 -8.1875 -2.4017 0.9641
-3.2229 -8.2073 -2.4016 0.9641
-3.1725 -8.2267 -2.4016 0.9641
-3.1220 -8.2459 -2.4015 0.9641
-3.0713 -8.2647 -2.4015 0.9641
-2.9697 -8.3014 -2.4014 0.9641
-2.9188 -8.3193 -2.4014 0.9641
-2.8677 -8.3369 -2.4013 0.9641
-2.7653 -8.3711 -2.4012 0.9641
-2.7138 -8.3877 -2.4012 0.9641
-2.6624 -8.4040 -2.4012 0.9641
-2.6108 -8.4200 -2.4011 0.9641
-2.5591 -8.4357 -2.4011 0.9641
-2.5073 -8.4511 -2.4010 0.9641
-2.4555 -8.4661 -2.4010 0.9641
-2.4035 -8.4809 -2.4009 0.9641
-2.3515 -8.4953 -2.4009 0.9641
-2.2993 -8.5094 -2.4008 0.9641
-2.2472 -8.5231 -2.4008 0.9641
-2.1948 -8.5366 -2.4008 0.9641
-2.1425 -8.5497 -2.4007 0.9641
-2.0900 -8.5625 -2.4007 0.9641
-2.0375 -8.5750 -2.4006 0.9641
-1.9322 -8.5990 -2.4005 0.9641
-1.8794 -8.6105 -2.4005 0.9641
-1.8266 -8.6217 -2.4004 0.9641
-1.7737 -8.6326 -2.4004 0.9641
-1.7208 -8.6431 -2.4004 0.9641
-1.6678 -8.6533 -2.4003 0.9641
-1.6147 -8.6632 -2.4003 0.9641
-1.4551 -8.6909 -2.4001 0.9641
-1.4018 -8.6995 -2.4001 0.9641
-1.3485 -8.7078 -2.4000 0.9641
-1.2951 -8.7157 -2.4000 0.9641
-1.2416 -8.7233 -2.4000 0.9641
-1.1882 -8.7306 -2.3999 0.9641
-1.1346 -8.7376 -2.3999 0.9641
-1.0810 -8.7442 -2.3998 0.9641
-1.0274 -8.7505 -2.3998 0.9641
-0.9738 -8.7565 -2.3997 0.9641
-0.9201 -8.7621 -2.3997 0.9641
-0.8664 -8.7674 -2.3996 0.9641
-0.8126 -8.7724 -2.3996 0.9641
-0.7589 -8.7770 -2.3995 0.9641
-7.6605 -4.2897 -2.5084 0.9641
-7.6341 -4.3365 -2.5084 0.9641
-7.6073 -4.3831 -2.5084 0.9641
-7.5802 -4.4296 -2.5084 0.9641
-7.5529 -4.4759 -2.5084 0.9641
-7.5253 -4.5221 -2.5083 0.9641
-7.4973 -4.5681 -2.5083 0.9641
-7.4691 -4.6139 -2.5083 0.9641
-7.4407 -4.6595 -2.5083 0.9641
-7.4119 -4.7050 -2.5082 0.9641
-7.3829 -4.7502 -2.5082 0.9641
-7.3536 -4.7953 -2.5082 0.9641
-7.3240 -4.8402 -2.5082 0.9641
-7.2941 -4.8850 -2.5081 0.9641
-7.2640 -4.9295 -2.5081 0.9641
-7.2336 -4.9739 -2.5081 0.9641
-7.2029 -5.0180 -2.5081 0.9641
-7.1720 -5.0620 -2.5080 0.9641
-7.1407 -5.1058 -2.5080 0.9641
-7.1093 -5.1494 -2.5080 0.9641
-7.0775 -5.1928 -2.5080 0.9641
-7.0455 -5.2360 -2.5079 0.9641
-7.0132 -5.2790 -2.5079 0.9641
-6.9807 -5.3219 -2.5079 0.9641
-6.9148 -5.4069 -2.5078 0.9641
-6.8479 -5.4911 -2.5078 0.9641
-6.8140 -5.5328 -2.5078 0.9641
-6.7799 -5.5744 -2.5077 0.9641
-6.7456 -5.6158 -2.5077 0.9641
-6.7110 -5.6569 -2.5077 0.9641
-6.6761 -5.6979 -2.5076 0.9641
-6.6410 -5.7386 -2.5076 0.9641
-6.6056 -5.7791 -2.5076 0.9641
-6.5700 -5.8194 -2.5076 0.9641
-6.5342 -5.8595 -2.5075 0.9641
-6.4981 -5.8993 -2.5075 0.9641
-6.4618 -5.9390 -2.5075 0.9641
-6.4252 -5.9784 -2.5074 0.9641
-6.3884 -6.0175 -2.5074 0.9641
-6.3513 -6.0565 -2.5074 0.9641
-6.2843 -6.0666 -2.4956 0.9643
-6.2084 -6.0672 -2.4801 0.9645
-6.1334 -6.0678 -2.4650 0.9647
-6.0600 -6.0691 -2.4504 0.9650
-5.9895 -6.0724 -2.4368 0.9651
-5.9197 -6.0757 -2.4236 0.9653
-5.8506 -6.0789 -2.4105 0.9655
-5.7972 -6.0977 -2.4038 0.9656
-5.7597 -6.1330 -2.4038 0.9656
-5.7219 -6.1681 -2.4038 0.9656
-5.6840 -6.2030 -2.4037 0.9656
-5.6074 -6.2720 -2.4037 0.9656
-5.5688 -6.3061 -2.4036 0.9656
-5.5300 -6.3400 -2.4036 0.9656
-5.4909 -6.3737 -2.4036 0.9656
-5.4123 -6.4403 -2.4035 0.9656
-5.3727 -6.4733 -2.4035 0.9656
-5.2928 -6.5384 -2.4034 0.9656
-5.2526 -6.5707 -2.4034 0.9656
-5.2121 -6.6026 -2.4033 0.9656
-5.1715 -6.6343 -2.4033 0.9656
-5.1307 -6.6658 -2.4033 0.9656
-5.0897 -6.6970 -2.4032 0.9656
-5.0485 -6.7279 -2.4032 0.9656
-5.0071 -6.7586 -2.4032 0.9656
-4.9655 -6.7891 -2.4031 0.9656
-4.9237 -6.8193 -2.4031 0.9656
-4.8818 -6.8492 -2.4030 0.9656
-4.8397 -6.8789 -2.4030 0.9656
-4.7974 -6.9083 -2.4030 0.9656
-4.7122 -6.9663 -2.4029 0.9656
-4.6694 -6.9950 -2.4029 0.9656
-4.6264 -7.0234 -2.4028 0.9656
-4.5832 -7.0515 -2.4028 0.9656
-4.5399 -7.0793 -2.4028 0.9656
-4.4963 -7.1068 -2.4027 0.9656
-4.4527 -7.1342 -2.4027 0.9656
-4.4088 -7.1612 -2.4026 0.9656
-4.3648 -7.1880 -2.4026 0.9656
-4.3206 -7.2145 -2.4026 0.9656
-4.2317 -7.2666 -2.4025 0.9656
-4.1871 -7.2923 -2.4025 0.9656
-4.1422 -7.3177 -2.4024 0.9656
-4.0972 -7.3428 -2.4024 0.9656
-4.0522 -7.3676 -2.4023 0.9656
-4.0069 -7.3922 -2.4023 0.9656
-3.9614 -7.4165 -2.4023 0.9656
-3.9159 -7.4405 -2.4022 0.9656
-3.8702 -7.4642 -2.4022 0.9656
-3.8243 -7.4877 -2.4021 0.9656
-3.7783 -7.5109 -2.4021 0.9656
-3.7321 -7.5338 -2.4021 0.9656
-3.6859 -7.5564 -2.4020 0.9656
-3.6394 -7.5787 -2.4020 0.9656
-3.5929 -7.6007 -2.4019 0.9656
-3.5462 -7.6224 -2.4019 0.9656
-3.4994 -7.6439 -2.4019 0.9656
-3.4524 -7.6651 -2.4018 0.9656
-3.4053 -7.6859 -2.4018 0.9656
-3.3581 -7.7065 -2.4017 0.9656
-3.3108 -7.7268 -2.4017 0.9656
-3.2633 -7.7468 -2.4017 0.9656
-3.2158 -7.7666 -2.4016 0.9656
-3.1681 -7.7860 -2.4016 0.9656
-3.1203 -7.8051 -2.4015 0.9656
-3.0724 -7.8239 -2.4015 0.9656
-3.0243 -7.8425 -2.4015 0.9656
-2.9279 -7.8787 -2.4014 0.9656
-2.8795 -7.8963 -2.4013 0.9656
-2.8310 -7.9137 -2.4013 0.9656
-2.7337 -7.9475 -2.4012 0.9656
-2.6850 -7.9640 -2.4012 0.9656
-2.6361 -7.9801 -2.4011 0.9656
-2.5871 -7.9960 -2.4011 0.9656
-2.5380 -8.0116 -2.4011 0.9656
-2.4889 -8.0268 -2.4010 0.9656
-2.4396 -8.0418 -2.4010 0.9656
-2.3902 -8.0564 -2.4009 0.9656
-2.3408 -8.0708 -2.4009 0.9656
-2.2913 -8.0848 -2.4008 0.9656
-2.2417 -8.0986 -2.4008 0.9656
-2.1920 -8.1120 -2.4008 0.9656
-2.1422 -8.1252 -2.4007 0.9656
-2.0923 -8.1380 -2.4007 0.9656
-2.0424 -8.1505 -2.4006 0.9656
-1.9924 -8.1627 -2.4006 0.9656
-1.9423 -8.1746 -2.4006 0.9657
-1.8922 -8.1862 -2.4005 0.9657
-1.8420 -8.1975 -2.4005 0.9657
-1.7413 -8.2192 -2.4004 0.9657
-1.6909 -8.2296 -2.4003 0.9657
-1.6404 -8.2396 -2.4003 0.9657
-1.5899 -8.2494 -2.4003 0.9657
-1.5393 -8.2588 -2.4002 0.9657
-1.4380 -8.2767 -2.4001 0.9657
-1.3872 -8.2853 -2.4001 0.9657
-1.3364 -8.2935 -2.4000 0.9657
-1.2855 -8.3013 -2.4000 0.9657
-1.2346 -8.3089 -2.4000 0.9657
-1.1837 -8.3162 -2.3999 0.9657
-1.1327 -8.3231 -2.3999 0.9657
-1.0817 -8.3297 -2.3998 0.9657
-1.0306 -8.3361 -2.3998 0.9657
-0.9795 -8.3421 -2.3997 0.9657
-0.9284 -8.3478 -2.3997 0.9657
-0.8772 -8.3532 -2.3997 0.9657
-0.8260 -8.3582 -2.3996 0.9657
-0.7747 -8.3630 -2.3996 0.9657
-0.7235 -8.3674 -2.3995 0.9657
-7.3158 -4.0967 -2.5081 0.9656
-7.2906 -4.1414 -2.5081 0.9656
-7.2650 -4.1859 -2.5081 0.9656
-7.2130 -4.2746 -2.5081 0.9656
-7.1867 -4.3186 -2.5080 0.9656
-7.1600 -4.3625 -2.5080 0.9656
-7.1331 -4.4063 -2.5080 0.9656
-7.1059 -4.4499 -2.5080 0.9656
-7.0784 -4.4933 -2.5080 0.9656
-7.0507 -4.5365 -2.5079 0.9656
-7.0227 -4.5796 -2.5079 0.9656
-6.9945 -4.6225 -2.5079 0.9656
-6.9660 -4.6652 -2.5079 0.9656
-6.9372 -4.7077 -2.5078 0.9656
-6.9081 -4.7501 -2.5078 0.9656
-6.8789 -4.7923 -2.5078 0.9656
-6.8493 -4.8343 -2.5078 0.9656
-6.8195 -4.8761 -2.5077 0.9656
-6.7894 -4.9178 -2.5077 0.9656
-6.7591 -4.9592 -2.5077 0.9656
-6.7286 -5.0005 -2.5077 0.9656
-6.6977 -5.0416 -2.5076 0.9656
-6.6666 -5.0824 -2.5076 0.9656
-6.6353 -5.1231 -2.5076 0.9656
-6.5719 -5.2039 -2.5075 0.9656
-6.5398 -5.2440 -2.5075 0.9656
-6.5075 -5.2840 -2.5075 0.9656
-6.4749 -5.3237 -2.5075 0.9656
-6.4421 -5.3632 -2.5074 0.9656
-6.4091 -5.4025 -2.5074 0.9656
-6.3758 -5.4416 -2.5074 0.9656
-6.3423 -5.4805 -2.5074 0.9656
-6.3085 -5.5192 -2.5073 0.9656
-6.2746 -5.5577 -2.5073 0.9656
-6.2403 -5.5959 -2.5073 0.9656
-6.2058 -5.6340 -2.5072 0.9656
-6.1362 -5.7095 -2.5072 0.9656
-6.1010 -5.7469 -2.5072 0.9656
-6.0656 -5.7841 -2.5071 0.9656
-6.0300 -5.8211 -2.5071 0.9656
-5.9942 -5.8579 -2.5071 0.9656
-5.9581 -5.8944 -2.5070 0.9656
-5.9218 -5.9307 -2.5070 0.9656
-5.8853 -5.9668 -2.5070 0.9656
-5.8116 -6.0383 -2.5069 0.9656
-5.7688 -6.0678 -2.5044 0.9656
-5.6989 -6.0683 -2.4902 0.9658
-5.6299 -6.0689 -2.4762 0.9660
-5.5616 -6.0694 -2.4625 0.9662
-5.4948 -6.0708 -2.4494 0.9664
-5.3029 -6.0797 -2.4132 0.9669
-5.2440 -6.0871 -2.4034 0.9670
-5.1689 -6.1507 -2.4033 0.9670
-5.1311 -6.1822 -2.4033 0.9670
-5.0931 -6.2135 -2.4032 0.9670
-5.0693 -6.2624 -2.4101 0.9669
-5.0164 -6.2752 -2.4032 0.9670
-4.9390 -6.3360 -2.4031 0.9670
-4.9000 -6.3661 -2.4031 0.9670
-4.8609 -6.3959 -2.4030 0.9670
-4.8215 -6.4255 -2.4030 0.9670
-4.7820 -6.4548 -2.4030 0.9670
-4.7423 -6.4839 -2.4029 0.9670
-4.7024 -6.5127 -2.4029 0.9670
-4.6623 -6.5413 -2.4029 0.9670
-4.6221 -6.5696 -2.4028 0.9670
-4.5818 -6.5978 -2.4028 0.9670
-4.5412 -6.6256 -2.4028 0.9670
-4.5004 -6.6532 -2.4027 0.9670
-4.4596 -6.6806 -2.4027 0.9670
-4.4184 -6.7077 -2.4027 0.9670
-4.3772 -6.7345 -2.4026 0.9670
-4.3358 -6.7611 -2.4026 0.9670
-4.2942 -6.7874 -2.4026 0.9670
-4.2525 -6.8135 -2.4025 0.9670
-4.2106 -6.8393 -2.4025 0.9670
-4.1686 -6.8649 -2.4024 0.9670
-4.0840 -6.9152 -2.4024 0.9670
-4.0415 -6.9400 -2.4023 0.9670
-3.9989 -6.9645 -2.4023 0.9670
-3.9561 -6.9888 -2.4023 0.9670
-3.8700 -7.0366 -2.4022 0.9670
-3.8268 -7.0600 -2.4022 0.9670
-3.7834 -7.0832 -2.4021 0.9670
-3.7399 -7.1062 -2.4021 0.9670
-3.6962 -7.1288 -2.4020 0.9670
-3.6524 -7.1512 -2.4020 0.9670
-3.6085 -7.1734 -2.4020 0.9670
-3.5644 -7.1952 -2.4019 0.9670
-3.4759 -7.2381 -2.4019 0.9670
-3.4314 -7.2592 -2.4018 0.9670
-3.3868 -7.2799 -2.4018 0.9670
-3.3421 -7.3004 -2.4017 0.9670
-3.2973 -7.3206 -2.4017 0.9670
-3.2072 -7.3603 -2.4016 0.9670
-3.1167 -7.3988 -2.4016 0.9670
-3.0713 -7.4176 -2.4015 0.9670
-2.9801 -7.4544 -2.4014 0.9670
-2.9343 -7.4724 -2.4014 0.9670
-2.8884 -7.4901 -2.4014 0.9670
-2.7963 -7.5247 -2.4013 0.9670
-2.7502 -7.5416 -2.4012 0.9670
-2.7039 -7.5582 -2.4012 0.9670
-2.6575 -7.5745 -2.4012 0.9670
-2.6110 -7.5905 -2.4011 0.9670
-2.5644 -7.6062 -2.4011 0.9670
-2.5177 -7.6217 -2.4010 0.9670
-2.4709 -7.6368 -2.4010 0.9670
-2.4240 -7.6517 -2.4010 0.9670
-2.3771 -7.6663 -2.4009 0.9670
-2.3300 -7.6806 -2.4009 0.9670
-2.2829 -7.6946 -2.4008 0.9670
-2.2357 -7.7083 -2.4008 0.9670
-2.1884 -7.7217 -2.4008 0.9670
-2.1410 -7.7348 -2.4007 0.9670
-2.0936 -7.7477 -2.4007 0.9670
-2.0460 -7.7602 -2.4006 0.9670
-1.9984 -7.7725 -2.4006 0.9670
-1.9507 -7.7845 -2.4006 0.9670
-1.9029 -7.7961 -2.4005 0.9670
-1.8551 -7.8075 -2.4005 0.9671
-1.7593 -7.8294 -2.4004 0.9671
-1.7112 -7.8399 -2.4004 0.9671
-1.6631 -7.8501 -2.4003 0.9671
-1.6150 -7.8600 -2.4003 0.9671
-1.5668 -7.8696 -2.4002 0.9671
-1.5185 -7.8789 -2.4002 0.9671
-1.4702 -7.8880 -2.4002 0.9671
-1.4218 -7.8967 -2.4001 0.9671
-1.3734 -7.9051 -2.4001 0.9671
-1.3249 -7.9132 -2.4000 0.9671
-1.2764 -7.9211 -2.4000 0.9671
-1.2278 -7.9286 -2.4000 0.9671
-1.1792 -7.9358 -2.3999 0.9671
-1.1305 -7.9428 -2.3999 0.9671
-1.0331 -7.9558 -2.3998 0.9671
-0.9843 -7.9618 -2.3998 0.9671
-0.9355 -7.9676 -2.3997 0.9671
-0.8867 -7.9730 -2.3997 0.9671
-0.8378 -7.9781 -2.3996 0.9671
-0.7889 -7.9830 -2.3996 0.9671
-0.7400 -7.9875 -2.3996 0.9671
-0.6910 -7.9918 -2.3995 0.9671
-6.9986 -3.9190 -2.5079 0.9669
-6.9744 -3.9618 -2.5079 0.9669
-6.9500 -4.0044 -2.5078 0.9669
-6.9253 -4.0469 -2.5078 0.9669
-6.9003 -4.0892 -2.5078 0.9669
-6.8750 -4.1314 -2.5078 0.9669
-6.8496 -4.1734 -2.5078 0.9669
-6.7978 -4.2569 -2.5077 0.9669
-6.7450 -4.3398 -2.5077 0.9669
-6.7182 -4.3810 -2.5077 0.9669
-6.6912 -4.4220 -2.5076 0.9669
-6.6640 -4.4629 -2.5076 0.9669
-6.6364 -4.5036 -2.5076 0.9669
-6.6086 -4.5441 -2.5076 0.9669
-6.5523 -4.6247 -2.5075 0.9669
-6.5238 -4.6647 -2.5075 0.9669
-6.4951 -4.7045 -2.5075 0.9669
-6.4368 -4.7837 -2.5074 0.9669
-6.4073 -4.8230 -2.5074 0.9669
-6.3776 -4.8621 -2.5074 0.9669
-6.3476 -4.9010 -2.5074 0.9669
-6.3175 -4.9398 -2.5073 0.9669
-6.2870 -4.9783 -2.5073 0.9669
-6.2563 -5.0167 -2.5073 0.9670
-6.2254 -5.0549 -2.5073 0.9670
-6.1943 -5.0929 -2.5072 0.9670
-6.1629 -5.1307 -2.5072 0.9670
-6.0673 -5.2429 -2.5071 0.9670
-6.0351 -5.2799 -2.5071 0.9670
-6.0025 -5.3167 -2.5071 0.9670
-5.9036 -5.4260 -2.5070 0.9670
-5.8365 -5.4978 -2.5069 0.9670
-5.8027 -5.5334 -2.5069 0.9670
-5.7344 -5.6039 -2.5069 0.9670
-5.6651 -5.6736 -2.5068 0.9670
-5.6302 -5.7082 -2.5068 0.9670
-5.5951 -5.7425 -2.5067 0.9670
-5.5597 -5.7766 -2.5067 0.9670
-5.5242 -5.8105 -2.5067 0.9670
-5.4884 -5.8442 -2.5067 0.9670
-5.4524 -5.8776 -2.5066 0.9670
-5.4162 -5.9108 -2.5066 0.9670
-5.3799 -5.9438 -2.5066 0.9670
-5.3433 -5.9766 -2.5065 0.9670
-5.2695 -6.0415 -2.5065 0.9670
-5.2287 -6.0693 -2.5047 0.9670
-5.1647 -6.0698 -2.4918 0.9672
-5.1013 -6.0703 -2.4791 0.9673
-5.0386 -6.0708 -2.4667 0.9675
-4.9765 -6.0713 -2.4544 0.9676
-4.9167 -6.0738 -2.4432 0.9678
-4.8576 -6.0765 -2.4323 0.9679
-4.7989 -6.0791 -2.4215 0.9681
-4.7408 -6.0817 -2.4109 0.9682
-4.6877 -6.0902 -2.4029 0.9683
-4.6502 -6.1188 -2.4029 0.9683
-4.6126 -6.1470 -2.4028 0.9683
-4.5748 -6.1751 -2.4028 0.9683
-4.4987 -6.2305 -2.4027 0.9683
-4.4655 -6.2651 -2.4055 0.9683
-4.4219 -6.2850 -2.4027 0.9683
-4.3832 -6.3119 -2.4026 0.9683
-4.3444 -6.3386 -2.4026 0.9683
-4.3054 -6.3650 -2.4026 0.9683
-4.2663 -6.3911 -2.4025 0.9683
-4.2270 -6.4171 -2.4025 0.9683
-4.1876 -6.4427 -2.4025 0.9683
-4.1480 -6.4682 -2.4024 0.9683
-4.0683 -6.5183 -2.4024 0.9683
-4.0282 -6.5430 -2.4023 0.9683
-3.9880 -6.5675 -2.4023 0.9683
-3.9476 -6.5917 -2.4023 0.9683
-3.9071 -6.6157 -2.4022 0.9683
-3.8665 -6.6394 -2.4022 0.9683
-3.8257 -6.6629 -2.4022 0.9683
-3.7847 -6.6861 -2.4021 0.9683
-3.7436 -6.7091 -2.4021 0.9683
-3.7024 -6.7317 -2.4021 0.9683
-3.6611 -6.7542 -2.4020 0.9683
-3.5779 -6.7984 -2.4020 0.9683
-3.5362 -6.8201 -2.4019 0.9683
-3.4942 -6.8415 -2.4019 0.9683
-3.4522 -6.8627 -2.4018 0.9683
-3.4101 -6.8836 -2.4018 0.9683
-3.3678 -6.9042 -2.4018 0.9683
-3.3254 -6.9246 -2.4017 0.9683
-3.2828 -6.9448 -2.4017 0.9683
-3.2402 -6.9647 -2.4017 0.9683
-3.1974 -6.9843 -2.4016 0.9683
-3.1545 -7.0036 -2.4016 0.9683
-3.1115 -7.0227 -2.4016 0.9683
-3.0251 -7.0601 -2.4015 0.9683
-2.9818 -7.0784 -2.4014 0.9683
-2.9383 -7.0964 -2.4014 0.9683
-2.8947 -7.1142 -2.4014 0.9683
-2.8510 -7.1317 -2.4013 0.9683
-2.8072 -7.1489 -2.4013 0.9683
-2.7633 -7.1658 -2.4013 0.9683
-2.6753 -7.1989 -2.4012 0.9683
-2.6311 -7.2151 -2.4012 0.9683
-2.5868 -7.2309 -2.4011 0.9683
-2.5424 -7.2465 -2.4011 0.9683
-2.4979 -7.2619 -2.4010 0.9683
-2.4533 -7.2769 -2.4010 0.9683
-2.4087 -7.2917 -2.4010 0.9683
-2.3639 -7.3062 -2.4009 0.9683
-2.3191 -7.3204 -2.4009 0.9683
-2.2742 -7.3344 -2.4009 0.9683
-2.2292 -7.3481 -2.4008 0.9683
-2.1841 -7.3615 -2.4008 0.9683
-2.1389 -7.3746 -2.4007 0.9683
-2.0937 -7.3874 -2.4007 0.9683
-2.0483 -7.4000 -2.4007 0.9683
-2.0029 -7.4123 -2.4006 0.9683
-1.9574 -7.4243 -2.4006 0.9683
-1.9119 -7.4360 -2.4005 0.9683
-1.8663 -7.4475 -2.4005 0.9683
-1.8206 -7.4587 -2.4005 0.9683
-1.7748 -7.4696 -2.4004 0.9683
-1.7290 -7.4802 -2.4004 0.9683
-1.6831 -7.4905 -2.4004 0.9683
-1.6371 -7.5006 -2.4003 0.9683
-1.5912 -7.5103 -2.4003 0.9683
-1.5451 -7.5198 -2.4002 0.9683
-1.4990 -7.5290 -2.4002 0.9683
-1.4528 -7.5379 -2.4002 0.9683
-1.4066 -7.5466 -2.4001 0.9683
-1.3603 -7.5549 -2.4001 0.9683
-1.3139 -7.5630 -2.4000 0.9683
-1.2676 -7.5708 -2.4000 0.9683
-1.2212 -7.5783 -2.4000 0.9683
-1.1747 -7.5855 -2.3999 0.9683
-1.1282 -7.5924 -2.3999 0.9683
-1.0816 -7.5991 -2.3998 0.9683
-1.0350 -7.6054 -2.3998 0.9683
-0.9884 -7.6115 -2.3998 0.9683
-0.9417 -7.6173 -2.3997 0.9683
-0.8950 -7.6228 -2.3997 0.9683
-0.8483 -7.6280 -2.3996 0.9683
-0.8015 -7.6329 -2.3996 0.9683
-0.7079 -7.6419 -2.3995 0.9683
-0.6611 -7.6460 -2.3995 0.9683
-6.7056 -3.7549 -2.5076 0.9682
-6.6824 -3.7959 -2.5076 0.9682
-6.6590 -3.8367 -2.5076 0.9682
-6.6353 -3.8774 -2.5076 0.9682
-6.6114 -3.9180 -2.5076 0.9682
-6.5872 -3.9584 -2.5075 0.9682
-6.5628 -3.9986 -2.5075 0.9682
-6.5381 -4.0387 -2.5075 0.9682
-6.5132 -4.0787 -2.5075 0.9682
-6.4880 -4.1185 -2.5075 0.9682
-6.4626 -4.1581 -2.5074 0.9682
-6.4370 -4.1976 -2.5074 0.9682
-6.4111 -4.2369 -2.5074 0.9682
-6.3850 -4.2761 -2.5074 0.9682
-6.3586 -4.3151 -2.5074 0.9682
-6.3320 -4.3539 -2.5073 0.9682
-6.3051 -4.3926 -2.5073 0.9682
-6.2780 -4.4311 -2.5073 0.9682
-6.2507 -4.4694 -2.5073 0.9682
-6.2232 -4.5076 -2.5072 0.9682
-6.1954 -4.5456 -2.5072 0.9682
-6.1674 -4.5834 -2.5072 0.9682
-6.1391 -4.6211 -2.5072 0.9682
-6.0819 -4.6958 -2.5071 0.9682
-6.0530 -4.7330 -2.5071 0.9682
-6.0238 -4.7699 -2.5071 0.9682
-5.9944 -4.8067 -2.5071 0.9682
-5.9648 -4.8433 -2.5070 0.9682
-5.9350 -4.8797 -2.5070 0.9682
-5.9049 -4.9159 -2.5070 0.9682
-5.8746 -4.9519 -2.5070 0.9682
-5.8441 -4.9878 -2.5069 0.9682
-5.7824 -5.0589 -2.5069 0.9682
-5.7513 -5.0942 -2.5069 0.9682
-5.7199 -5.1293 -2.5068 0.9682
-5.6883 -5.1642 -2.5068 0.9682
-5.6565 -5.1989 -2.5068 0.9682
-5.6245 -5.2334 -2.5068 0.9682
-5.5923 -5.2677 -2.5067 0.9682
-5.5598 -5.3018 -2.5067 0.9682
-5.5272 -5.3357 -2.5067 0.9682
-5.4944 -5.3694 -2.5066 0.9682
-5.4613 -5.4029 -2.5066 0.9682
-5.4280 -5.4362 -2.5066 0.9682
-5.3946 -5.4693 -2.5066 0.9682
-5.3609 -5.5022 -2.5065 0.9682
-5.3270 -5.5348 -2.5065 0.9682
-5.2929 -5.5673 -2.5065 0.9682
-5.2587 -5.5996 -2.5065 0.9682
-5.2242 -5.6316 -2.5064 0.9682
-5.1896 -5.6634 -2.5064 0.9682
-5.1547 -5.6951 -2.5064 0.9682
-5.1197 -5.7265 -2.5063 0.9682
-5.0845 -5.7577 -2.5063 0.9682
-5.0490 -5.7886 -2.5063 0.9682
-5.0134 -5.8194 -2.5063 0.9682
-4.9776 -5.8499 -2.5062 0.9682
-4.9416 -5.8803 -2.5062 0.9682
-4.9054 -5.9103 -2.5062 0.9682
-4.8325 -5.9699 -2.5061 0.9682
-4.7958 -5.9993 -2.5061 0.9682
-4.7589 -6.0285 -2.5060 0.9682
-4.7218 -6.0574 -2.5060 0.9682
-4.6143 -6.0715 -2.4882 0.9684
-4.5562 -6.0719 -2.4769 0.9686
-4.4987 -6.0723 -2.4658 0.9687
-4.4416 -6.0728 -2.4549 0.9688
-4.3862 -6.0748 -2.4448 0.9690
-4.2774 -6.0796 -2.4255 0.9692
-4.2235 -6.0819 -2.4160 0.9693
-4.1701 -6.0842 -2.4067 0.9694
-4.1253 -6.0987 -2.4024 0.9695
-4.0879 -6.1238 -2.4024 0.9695
-4.0502 -6.1486 -2.4024 0.9695
-3.9744 -6.1976 -2.4023 0.9695
-3.9363 -6.2217 -2.4023 0.9695
-3.8597 -6.2694 -2.4022 0.9695
-3.8212 -6.2928 -2.4022 0.9695
-3.7437 -6.3390 -2.4021 0.9695
-3.7047 -6.3617 -2.4021 0.9695
-3.6656 -6.3842 -2.4020 0.9695
-3.5871 -6.4284 -2.4020 0.9695
-3.5476 -6.4502 -2.4019 0.9695
-3.5079 -6.4717 -2.4019 0.9695
-3.4681 -6.4930 -2.4019 0.9695
-3.4283 -6.5140 -2.4018 0.9695
-3.3079 -6.5757 -2.4017 0.9695
-3.2675 -6.5957 -2.4017 0.9695
-3.2269 -6.6155 -2.4017 0.9695
-3.1863 -6.6350 -2.4016 0.9695
-3.1047 -6.6734 -2.4016 0.9695
-3.0637 -6.6922 -2.4015 0.9695
-3.0226 -6.7108 -2.4015 0.9695
-2.9814 -6.7290 -2.4015 0.9695
-2.9401 -6.7471 -2.4014 0.9695
-2.8571 -6.7824 -2.4014 0.9695
-2.8154 -6.7997 -2.4013 0.9695
-2.7737 -6.8167 -2.4013 0.9695
-2.7318 -6.8335 -2.4012 0.9695
-2.6899 -6.8500 -2.4012 0.9695
-2.6478 -6.8662 -2.4012 0.9695
-2.6057 -6.8822 -2.4011 0.9695
-2.5211 -6.9134 -2.4011 0.9695
-2.4786 -6.9286 -2.4010 0.9695
-2.4361 -6.9436 -2.4010 0.9695
-2.3935 -6.9583 -2.4010 0.9695
-2.3508 -6.9727 -2.4009 0.9695
-2.3080 -6.9869 -2.4009 0.9695
-2.2651 -7.0007 -2.4009 0.9695
-2.2221 -7.0144 -2.4008 0.9695
-2.1791 -7.0278 -2.4008 0.9695
-2.1360 -7.0409 -2.4007 0.9695
-2.0928 -7.0537 -2.4007 0.9695
-2.0495 -7.0663 -2.4007 0.9695
-1.9192 -7.1025 -2.4006 0.9695
-1.8756 -7.1140 -2.4005 0.9695
-1.7882 -7.1362 -2.4004 0.9695
-1.7006 -7.1573 -2.4004 0.9695
-1.6567 -7.1675 -2.4003 0.9695
-1.5687 -7.1871 -2.4003 0.9695
-1.5246 -7.1964 -2.4002 0.9695
-1.4805 -7.2055 -2.4002 0.9695
-1.4363 -7.2143 -2.4002 0.9695
-1.3921 -7.2229 -2.4001 0.9695
-1.3478 -7.2312 -2.4001 0.9695
-1.3034 -7.2392 -2.4000 0.9695
-1.2590 -7.2469 -2.4000 0.9695
-1.1701 -7.2616 -2.3999 0.9695
-1.1256 -7.2685 -2.3999 0.9695
-1.0810 -7.2751 -2.3999 0.9695
-1.0364 -7.2815 -2.3998 0.9695
-0.9918 -7.2876 -2.3998 0.9695
-0.9471 -7.2934 -2.3997 0.9695
-0.9024 -7.2990 -2.3997 0.9695
-0.8576 -7.3043 -2.3997 0.9695
-0.8129 -7.3093 -2.3996 0.9695
-0.7681 -7.3140 -2.3996 0.9695
-0.7232 -7.3184 -2.3996 0.9695
-0.6784 -7.3226 -2.3995 0.9695
-0.6335 -7.3265 -2.3995 0.9695
-6.4118 -3.6422 -2.5074 0.9693
-6.3893 -3.6813 -2.5074 0.9693
-6.3666 -3.7204 -2.5073 0.9693
-6.3436 -3.7593 -2.5073 0.9693
-6.3204 -3.7981 -2.5073 0.9693
-6.2970 -3.8367 -2.5073 0.9693
-6.2733 -3.8752 -2.5073 0.9693
-6.2494 -3.9135 -2.5073 0.9693
-6.2253 -3.9517 -2.5072 0.9693
-6.1763 -4.0276 -2.5072 0.9693
-6.1514 -4.0653 -2.5072 0.9693
-6.1264 -4.1029 -2.5072 0.9693
-6.1011 -4.1403 -2.5071 0.9693
-6.0755 -4.1776 -2.5071 0.9693
-6.0498 -4.2147 -2.5071 0.9693
-6.0238 -4.2516 -2.5071 0.9693
-5.9976 -4.2884 -2.5070 0.9693
-5.9712 -4.3251 -2.5070 0.9693
-5.9176 -4.3978 -2.5070 0.9693
-5.8632 -4.4699 -2.5069 0.9693
-5.8356 -4.5057 -2.5069 0.9693
-5.7799 -4.5768 -2.5069 0.9693
-5.7517 -4.6121 -2.5068 0.9693
-5.7233 -4.6472 -2.5068 0.9693
-5.6946 -4.6821 -2.5068 0.9693
-5.6658 -4.7168 -2.5068 0.9693
-5.6367 -4.7514 -2.5068 0.9693
-5.6075 -4.7858 -2.5067 0.9693
-5.5780 -4.8200 -2.5067 0.9693
-5.5483 -4.8541 -2.5067 0.9693
-5.5184 -4.8879 -2.5067 0.9693
-5.4883 -4.9216 -2.5066 0.9693
-5.4580 -4.9551 -2.5066 0.9693
-5.4275 -4.9884 -2.5066 0.9693
-5.3659 -5.0544 -2.5065 0.9693
-5.3347 -5.0871 -2.5065 0.9693
-5.3034 -5.1197 -2.5065 0.9693
-5.2719 -5.1520 -2.5065 0.9693
-5.2402 -5.1841 -2.5064 0.9693
-5.2083 -5.2161 -2.5064 0.9693
-5.1762 -5.2479 -2.5064 0.9693
-5.1438 -5.2794 -2.5064 0.9693
-5.1113 -5.3108 -2.5063 0.9693
-5.0458 -5.3729 -2.5063 0.9693
-5.0127 -5.4036 -2.5062 0.9693
-4.9795 -5.4342 -2.5062 0.9693
-4.9124 -5.4947 -2.5062 0.9693
-4.8446 -5.5543 -2.5061 0.9693
-4.8104 -5.5838 -2.5061 0.9693
-4.7761 -5.6131 -2.5060 0.9693
-4.7416 -5.6422 -2.5060 0.9693
-4.7069 -5.6711 -2.5060 0.9693
-4.6720 -5.6998 -2.5060 0.9693
-4.6369 -5.7282 -2.5059 0.9693
-4.6017 -5.7564 -2.5059 0.9693
-4.5663 -5.7845 -2.5059 0.9693
-4.5307 -5.8123 -2.5058 0.9693
-4.4949 -5.8398 -2.5058 0.9693
-4.4590 -5.8672 -2.5058 0.9693
-4.4230 -5.8943 -2.5058 0.9693
-4.3867 -5.9212 -2.5057 0.9693
-4.3503 -5.9479 -2.5057 0.9693
-4.3137 -5.9744 -2.5057 0.9693
-4.2770 -6.0007 -2.5056 0.9693
-4.2401 -6.0267 -2.5056 0.9693
-4.2031 -6.0525 -2.5056 0.9693
-4.1620 -6.0723 -2.5032 0.9694
-4.0541 -6.0731 -2.4829 0.9696
-4.0007 -6.0736 -2.4730 0.9697
-3.9479 -6.0740 -2.4632 0.9699
-3.8954 -6.0743 -2.4537 0.9700
-3.8443 -6.0762 -2.4449 0.9701
-3.7937 -6.0783 -2.4363 0.9702
-3.7434 -6.0804 -2.4279 0.9703
-3.6439 -6.0845 -2.4115 0.9705
-3.5946 -6.0864 -2.4036 0.9706
-3.5548 -6.1043 -2.4019 0.9706
-3.4797 -6.1472 -2.4019 0.9706
-3.4419 -6.1683 -2.4019 0.9706
-3.4040 -6.1892 -2.4018 0.9706
-3.3279 -6.2303 -2.4018 0.9706
-3.2985 -6.2675 -2.4083 0.9705
-3.2512 -6.2704 -2.4017 0.9706
-3.2127 -6.2902 -2.4017 0.9706
-3.1740 -6.3097 -2.4016 0.9706
-3.1353 -6.3289 -2.4016 0.9706
-3.0964 -6.3479 -2.4016 0.9706
-3.0574 -6.3667 -2.4015 0.9706
-3.0183 -6.3852 -2.4015 0.9706
-2.9791 -6.4034 -2.4015 0.9706
-2.9397 -6.4215 -2.4014 0.9706
-2.9003 -6.4393 -2.4014 0.9706
-2.8608 -6.4569 -2.4014 0.9706
-2.8211 -6.4742 -2.4013 0.9706
-2.7814 -6.4912 -2.4013 0.9706
-2.7415 -6.5081 -2.4013 0.9706
-2.6615 -6.5410 -2.4012 0.9706
-2.6213 -6.5571 -2.4012 0.9706
-2.5407 -6.5885 -2.4011 0.9706
-2.5003 -6.6038 -2.4011 0.9706
-2.4598 -6.6189 -2.4010 0.9706
-2.4191 -6.6338 -2.4010 0.9706
-2.3784 -6.6484 -2.4010 0.9706
-2.3376 -6.6627 -2.4009 0.9706
-2.2967 -6.6768 -2.4009 0.9706
-2.1735 -6.7176 -2.4008 0.9706
-2.1323 -6.7307 -2.4007 0.9706
-2.0910 -6.7436 -2.4007 0.9706
-2.0496 -6.7562 -2.4007 0.9706
-2.0081 -6.7685 -2.4006 0.9706
-1.9666 -6.7806 -2.4006 0.9706
-1.9250 -6.7924 -2.4006 0.9706
-1.8833 -6.8039 -2.4005 0.9706
-1.8416 -6.8153 -2.4005 0.9706
-1.7998 -6.8263 -2.4005 0.9706
-1.7579 -6.8371 -2.4004 0.9706
-1.7160 -6.8476 -2.4004 0.9706
-1.6740 -6.8579 -2.4004 0.9706
-1.5897 -6.8777 -2.4003 0.9706
-1.5475 -6.8872 -2.4003 0.9706
-1.5053 -6.8965 -2.4002 0.9706
-1.4630 -6.9055 -2.4002 0.9706
-1.4206 -6.9142 -2.4001 0.9706
-1.3782 -6.9227 -2.4001 0.9706
-1.3358 -6.9309 -2.4001 0.9706
-1.2933 -6.9388 -2.4000 0.9706
-1.2508 -6.9465 -2.4000 0.9706
-1.1655 -6.9611 -2.3999 0.9706
-1.1228 -6.9680 -2.3999 0.9706
-1.0801 -6.9747 -2.3999 0.9706
-0.9945 -6.9872 -2.3998 0.9706
-0.9517 -6.9930 -2.3998 0.9706
-0.9088 -6.9986 -2.3997 0.9706
-0.8229 -7.0090 -2.3996 0.9706
-0.7800 -7.0138 -2.3996 0.9706
-0.7370 -7.0184 -2.3996 0.9706
-0.6940 -7.0226 -2.3995 0.9706
-0.6509 -7.0267 -2.3995 0.9706
-0.6079 -7.0304 -2.3995 0.9706
-6.1602 -3.4992 -2.5072 0.9704
-6.1386 -3.5369 -2.5072 0.9704
-6.1167 -3.5744 -2.5071 0.9704
-6.0947 -3.6118 -2.5071 0.9704
-6.0724 -3.6490 -2.5071 0.9704
-6.0499 -3.6861 -2.5071 0.9704
-6.0272 -3.7231 -2.5071 0.9704
-6.0042 -3.7599 -2.5070 0.9704
-5.9810 -3.7966 -2.5070 0.9704
-5.9576 -3.8332 -2.5070 0.9704
-5.9339 -3.8696 -2.5070 0.9704
-5.9101 -3.9058 -2.5070 0.9704
-5.8860 -3.9419 -2.5069 0.9704
-5.8617 -3.9779 -2.5069 0.9704
-5.8372 -4.0137 -2.5069 0.9704
-5.7369 -4.1554 -2.5068 0.9704
-5.7113 -4.1904 -2.5068 0.9704
-5.6854 -4.2253 -2.5068 0.9704
-5.6594 -4.2600 -2.5068 0.9704
-5.6332 -4.2945 -2.5067 0.9704
-5.6067 -4.3289 -2.5067 0.9704
-5.5800 -4.3632 -2.5067 0.9704
-5.5531 -4.3972 -2.5067 0.9704
-5.5261 -4.4311 -2.5067 0.9704
-5.4988 -4.4649 -2.5066 0.9704
-5.4712 -4.4984 -2.5066 0.9704
-5.4435 -4.5318 -2.5066 0.9704
-5.4156 -4.5650 -2.5066 0.9704
-5.3875 -4.5981 -2.5065 0.9704
-5.3592 -4.6310 -2.5065 0.9704
-5.3306 -4.6637 -2.5065 0.9704
-5.2439 -4.7607 -2.5064 0.9704
-5.2146 -4.7927 -2.5064 0.9704
-5.1851 -4.8245 -2.5064 0.9704
-5.1554 -4.8561 -2.5064 0.9704
-5.1255 -4.8876 -2.5063 0.9704
-5.0954 -4.9188 -2.5063 0.9704
-5.0651 -4.9499 -2.5063 0.9704
-5.0040 -5.0115 -2.5062 0.9704
-4.9731 -5.0420 -2.5062 0.9704
-4.9421 -5.0723 -2.5062 0.9704
-4.8795 -5.1324 -2.5061 0.9704
-4.8479 -5.1621 -2.5061 0.9704
-4.8161 -5.1917 -2.5061 0.9704
-4.7520 -5.2502 -2.5060 0.9704
-4.7197 -5.2791 -2.5060 0.9704
-4.6873 -5.3079 -2.5060 0.9704
-4.6546 -5.3365 -2.5059 0.9704
-4.6218 -5.3648 -2.5059 0.9704
-4.5888 -5.3930 -2.5059 0.9704
-4.5556 -5.4209 -2.5059 0.9704
-4.5223 -5.4487 -2.5058 0.9704
-4.4887 -5.4762 -2.5058 0.9704
-4.4551 -5.5036 -2.5058 0.9704
-4.4212 -5.5307 -2.5058 0.9704
-4.3872 -5.5576 -2.5057 0.9704
-4.3530 -5.5843 -2.5057 0.9704
-4.3187 -5.6108 -2.5057 0.9704
-4.2842 -5.6371 -2.5056 0.9704
-4.2495 -5.6632 -2.5056 0.9704
-4.1797 -5.7147 -2.5056 0.9704
-4.1446 -5.7401 -2.5055 0.9704
-4.1093 -5.7653 -2.5055 0.9704
-4.0025 -5.8397 -2.5054 0.9704
-3.9666 -5.8640 -2.5054 0.9704
-3.9305 -5.8881 -2.5053 0.9704
-3.8580 -5.9357 -2.5053 0.9704
-3.8215 -5.9592 -2.5053 0.9704
-3.7849 -5.9824 -2.5052 0.9704
-3.7481 -6.0054 -2.5052 0.9704
-3.6742 -6.0507 -2.5051 0.9704
-3.6370 -6.0730 -2.5051 0.9704
-3.5873 -6.0741 -2.4964 0.9705
-3.5375 -6.0745 -2.4876 0.9706
-3.4389 -6.0752 -2.4705 0.9708
-3.3901 -6.0755 -2.4621 0.9709
-3.3417 -6.0759 -2.4539 0.9710
-3.2942 -6.0773 -2.4463 0.9711
-3.2471 -6.0792 -2.4390 0.9712
-3.2003 -6.0809 -2.4318 0.9713
-3.1538 -6.0827 -2.4247 0.9713
-3.1076 -6.0844 -2.4178 0.9714
-3.0616 -6.0861 -2.4110 0.9715
-3.0158 -6.0878 -2.4043 0.9716
-2.9376 -6.1171 -2.4014 0.9716
-2.9000 -6.1349 -2.4014 0.9716
-2.8245 -6.1698 -2.4013 0.9716
-2.7486 -6.2038 -2.4013 0.9716
-2.7105 -6.2204 -2.4012 0.9716
-2.6724 -6.2368 -2.4012 0.9716
-2.6410 -6.2694 -2.4075 0.9715
-2.5965 -6.2709 -2.4019 0.9716
-2.5186 -6.3001 -2.4011 0.9716
-2.4799 -6.3153 -2.4010 0.9716
-2.4412 -6.3303 -2.4010 0.9716
-2.4023 -6.3450 -2.4010 0.9716
-2.3633 -6.3596 -2.4009 0.9716
-2.3243 -6.3738 -2.4009 0.9716
-2.2852 -6.3879 -2.4009 0.9716
-2.2460 -6.4017 -2.4008 0.9716
-2.2067 -6.4152 -2.4008 0.9716
-2.1673 -6.4285 -2.4008 0.9716
-2.1279 -6.4416 -2.4007 0.9716
-2.0090 -6.4793 -2.4006 0.9716
-1.9693 -6.4914 -2.4006 0.9716
-1.9295 -6.5033 -2.4006 0.9716
-1.8896 -6.5149 -2.4005 0.9716
-1.8496 -6.5262 -2.4005 0.9716
-1.8095 -6.5374 -2.4005 0.9716
-1.7695 -6.5482 -2.4004 0.9716
-1.7293 -6.5589 -2.4004 0.9716
-1.6890 -6.5692 -2.4004 0.9716
-1.6487 -6.5794 -2.4003 0.9716
-1.6084 -6.5893 -2.4003 0.9716
-1.5679 -6.5989 -2.4003 0.9716
-1.5274 -6.6083 -2.4002 0.9716
-1.4869 -6.6174 -2.4002 0.9716
-1.4463 -6.6263 -2.4002 0.9716
-1.4057 -6.6349 -2.4001 0.9716
-1.3650 -6.6433 -2.4001 0.9716
-1.2835 -6.6594 -2.4000 0.9716
-1.2426 -6.6670 -2.4000 0.9716
-1.2017 -6.6744 -2.4000 0.9716
-1.1608 -6.6816 -2.3999 0.9716
-1.1198 -6.6884 -2.3999 0.9716
-1.0788 -6.6951 -2.3999 0.9716
-1.0378 -6.7015 -2.3998 0.9716
-0.9967 -6.7076 -2.3998 0.9716
-0.9556 -6.7135 -2.3998 0.9716
-0.9144 -6.7191 -2.3997 0.9716
-0.8732 -6.7245 -2.3997 0.9716
-0.8320 -6.7296 -2.3997 0.9716
-0.7907 -6.7345 -2.3996 0.9716
-0.7495 -6.7391 -2.3996 0.9716
-0.7081 -6.7435 -2.3996 0.9716
-0.6668 -6.7476 -2.3995 0.9716
-0.6254 -6.7515 -2.3995 0.9716
-0.5840 -6.7550 -2.3994 0.9716
-5.9462 -3.3297 -2.5070 0.9714
-5.9256 -3.3660 -2.5070 0.9714
-5.9048 -3.4022 -2.5070 0.9714
-5.8838 -3.4383 -2.5069 0.9714
-5.8626 -3.4743 -2.5069 0.9714
-5.8412 -3.5101 -2.5069 0.9714
-5.8196 -3.5458 -2.5069 0.9714
-5.7977 -3.5814 -2.5069 0.9714
-5.7756 -3.6168 -2.5068 0.9714
-5.7533 -3.6521 -2.5068 0.9714
-5.7307 -3.6872 -2.5068 0.9714
-5.7080 -3.7222 -2.5068 0.9714
-5.6619 -3.7918 -2.5068 0.9714
-5.6385 -3.8264 -2.5067 0.9714
-5.6149 -3.8608 -2.5067 0.9714
-5.5911 -3.8951 -2.5067 0.9714
-5.5671 -3.9293 -2.5067 0.9714
-5.5429 -3.9633 -2.5067 0.9714
-5.5185 -3.9971 -2.5066 0.9714
-5.4690 -4.0644 -2.5066 0.9714
-5.4439 -4.0978 -2.5066 0.9714
-5.4187 -4.1310 -2.5066 0.9714
-5.3932 -4.1641 -2.5065 0.9714
-5.3676 -4.1970 -2.5065 0.9714
-5.3417 -4.2298 -2.5065 0.9714
-5.2894 -4.2949 -2.5065 0.9714
-5.2630 -4.3272 -2.5064 0.9714
-5.2363 -4.3593 -2.5064 0.9714
-5.2095 -4.3912 -2.5064 0.9714
-5.1824 -4.4230 -2.5064 0.9714
-5.1552 -4.4547 -2.5063 0.9714
-5.1278 -4.4861 -2.5063 0.9714
-5.1001 -4.5174 -2.5063 0.9714
-5.0723 -4.5485 -2.5063 0.9714
-5.0443 -4.5795 -2.5063 0.9714
-5.0161 -4.6103 -2.5062 0.9714
-4.9877 -4.6409 -2.5062 0.9714
-4.9591 -4.6713 -2.5062 0.9714
-4.9014 -4.7316 -2.5061 0.9714
-4.8723 -4.7615 -2.5061 0.9714
-4.8135 -4.8207 -2.5061 0.9714
-4.7838 -4.8501 -2.5060 0.9714
-4.7240 -4.9082 -2.5060 0.9714
-4.6937 -4.9370 -2.5060 0.9714
-4.6328 -4.9941 -2.5059 0.9714
-4.6021 -5.0223 -2.5059 0.9714
-4.5712 -5.0504 -2.5059 0.9714
-4.5089 -5.1059 -2.5058 0.9714
-4.4775 -5.1334 -2.5058 0.9714
-4.4459 -5.1606 -2.5058 0.9714
-4.4141 -5.1877 -2.5057 0.9714
-4.3502 -5.2413 -2.5057 0.9714
-4.3179 -5.2678 -2.5057 0.9714
-4.2530 -5.3202 -2.5056 0.9714
-4.2202 -5.3461 -2.5056 0.9714
-4.1543 -5.3973 -2.5055 0.9714
-4.1212 -5.4226 -2.5055 0.9714
-4.0878 -5.4477 -2.5055 0.9714
-4.0543 -5.4725 -2.5054 0.9714
-4.0207 -5.4972 -2.5054 0.9714
-3.9869 -5.5217 -2.5054 0.9714
-3.9529 -5.5459 -2.5054 0.9714
-3.9188 -5.5700 -2.5053 0.9714
-3.8846 -5.5938 -2.5053 0.9714
-3.8502 -5.6175 -2.5053 0.9714
-3.8157 -5.6409 -2.5052 0.9714
-3.7810 -5.6641 -2.5052 0.9714
-3.7462 -5.6871 -2.5052 0.9714
-3.7112 -5.7099 -2.5052 0.9714
-3.6761 -5.7324 -2.5051 0.9714
-3.6409 -5.7548 -2.5051 0.9714
-3.6055 -5.7769 -2.5051 0.9714
-3.5700 -5.7988 -2.5050 0.9714
-3.5344 -5.8205 -2.5050 0.9714
-3.4986 -5.8420 -2.5050 0.9714
-3.4627 -5.8632 -2.5050 0.9714
-3.4267 -5.8843 -2.5049 0.9714
-3.3905 -5.9051 -2.5049 0.9714
-3.3543 -5.9257 -2.5049 0.9714
-3.3179 -5.9460 -2.5048 0.9714
-3.2813 -5.9662 -2.5048 0.9714
-3.2447 -5.9861 -2.5048 0.9714
-3.2079 -6.0058 -2.5047 0.9714
-3.1710 -6.0253 -2.5047 0.9714
-3.1340 -6.0445 -2.5047 0.9714
-3.0969 -6.0635 -2.5047 0.9714
-3.0562 -6.0755 -2.5018 0.9714
-3.0099 -6.0758 -2.4943 0.9715
-2.9638 -6.0761 -2.4869 0.9716
-2.9180 -6.0764 -2.4797 0.9717
-2.8725 -6.0767 -2.4726 0.9718
-2.8272 -6.0770 -2.4656 0.9718
-2.7822 -6.0773 -2.4588 0.9719
-2.7374 -6.0776 -2.4521 0.9720
-2.6934 -6.0790 -2.4459 0.9721
-2.6496 -6.0805 -2.4400 0.9721
-2.6060 -6.0820 -2.4341 0.9722
-2.5627 -6.0835 -2.4284 0.9723
-2.5195 -6.0850 -2.4227 0.9723
-2.3487 -6.0906 -2.4013 0.9726
-2.3109 -6.1037 -2.4009 0.9726
-2.2735 -6.1177 -2.4009 0.9726
-2.2359 -6.1314 -2.4008 0.9726
-2.1983 -6.1449 -2.4008 0.9726
-2.1606 -6.1582 -2.4008 0.9726
-2.1228 -6.1712 -2.4007 0.9726
-2.0849 -6.1840 -2.4007 0.9726
-2.0470 -6.1966 -2.4007 0.9726
-2.0089 -6.2090 -2.4007 0.9726
-1.9708 -6.2211 -2.4006 0.9726
-1.8944 -6.2446 -2.4006 0.9726
-1.8610 -6.2725 -2.4068 0.9725
-1.8196 -6.2735 -2.4029 0.9725
-1.7792 -6.2781 -2.4005 0.9726
-1.7407 -6.2888 -2.4004 0.9726
-1.7022 -6.2993 -2.4004 0.9726
-1.6635 -6.3095 -2.4004 0.9726
-1.6248 -6.3195 -2.4003 0.9726
-1.5860 -6.3292 -2.4003 0.9726
-1.5472 -6.3387 -2.4003 0.9726
-1.5083 -6.3480 -2.4002 0.9726
-1.4694 -6.3570 -2.4002 0.9726
-1.4304 -6.3658 -2.4002 0.9726
-1.3914 -6.3744 -2.4001 0.9726
-1.3523 -6.3827 -2.4001 0.9726
-1.3131 -6.3908 -2.4001 0.9726
-1.2739 -6.3986 -2.4000 0.9726
-1.2347 -6.4062 -2.4000 0.9726
-1.1954 -6.4136 -2.4000 0.9726
-1.1561 -6.4207 -2.3999 0.9726
-1.1167 -6.4276 -2.3999 0.9726
-1.0773 -6.4342 -2.3999 0.9726
-1.0378 -6.4406 -2.3998 0.9726
-0.9983 -6.4467 -2.3998 0.9726
-0.9588 -6.4526 -2.3998 0.9726
-0.9193 -6.4583 -2.3997 0.9726
-0.8797 -6.4637 -2.3997 0.9726
-0.8400 -6.4689 -2.3997 0.9726
-0.8004 -6.4738 -2.3996 0.9726
-0.7607 -6.4785 -2.3996 0.9726
-0.7210 -6.4830 -2.3996 0.9726
-0.6812 -6.4872 -2.3995 0.9726
-0.6415 -6.4911 -2.3995 0.9726
-0.6017 -6.4949 -2.3995 0.9726
-0.5619 -6.4983 -2.3994 0.9726
-5.7261 -3.2065 -2.5068 0.9723
-5.7063 -3.2415 -2.5068 0.9723
-5.6863 -3.2763 -2.5068 0.9723
-5.6661 -3.3111 -2.5068 0.9723
-5.6251 -3.3802 -2.5067 0.9723
-5.6042 -3.4146 -2.5067 0.9723
-5.5831 -3.4488 -2.5067 0.9723
-5.5619 -3.4830 -2.5067 0.9723
-5.5404 -3.5169 -2.5066 0.9723
-5.5187 -3.5508 -2.5066 0.9723
-5.4968 -3.5845 -2.5066 0.9723
-5.4299 -3.6848 -2.5066 0.9723
-5.3842 -3.7510 -2.5065 0.9723
-5.3611 -3.7839 -2.5065 0.9723
-5.3378 -3.8167 -2.5065 0.9723
-5.3143 -3.8493 -2.5065 0.9723
-5.2905 -3.8817 -2.5064 0.9723
-5.2667 -3.9140 -2.5064 0.9723
-5.2425 -3.9462 -2.5064 0.9723
-5.2182 -3.9782 -2.5064 0.9723
-5.1937 -4.0101 -2.5064 0.9723
-5.1690 -4.0418 -2.5063 0.9723
-5.1441 -4.0733 -2.5063 0.9723
-5.1190 -4.1047 -2.5063 0.9723
-5.0937 -4.1360 -2.5063 0.9723
-5.0682 -4.1671 -2.5063 0.9723
-5.0167 -4.2288 -2.5062 0.9723
-4.9907 -4.2594 -2.5062 0.9723
-4.9114 -4.3503 -2.5061 0.9723
-4.8846 -4.3803 -2.5061 0.9723
-4.8577 -4.4101 -2.5061 0.9723
-4.8305 -4.4397 -2.5061 0.9723
-4.8032 -4.4692 -2.5061 0.9723
-4.7757 -4.4985 -2.5060 0.9723
-4.7480 -4.5276 -2.5060 0.9723
-4.7201 -4.5566 -2.5060 0.9723
-4.6921 -4.5853 -2.5060 0.9723
-4.6638 -4.6140 -2.5059 0.9723
-4.6354 -4.6424 -2.5059 0.9723
-4.6069 -4.6707 -2.5059 0.9723
-4.5492 -4.7267 -2.5058 0.9723
-4.4614 -4.8093 -2.5058 0.9723
-4.4319 -4.8366 -2.5057 0.9723
-4.4021 -4.8636 -2.5057 0.9723
-4.3722 -4.8904 -2.5057 0.9723
-4.3119 -4.9435 -2.5056 0.9723
-4.2814 -4.9698 -2.5056 0.9723
-4.2509 -4.9959 -2.5056 0.9723
-4.2202 -5.0218 -2.5056 0.9723
-4.1893 -5.0475 -2.5055 0.9723
-4.1582 -5.0730 -2.5055 0.9723
-4.1270 -5.0983 -2.5055 0.9723
-4.0957 -5.1234 -2.5055 0.9723
-4.0642 -5.1484 -2.5054 0.9723
-4.0325 -5.1731 -2.5054 0.9723
-4.0007 -5.1977 -2.5054 0.9723
-3.9687 -5.2220 -2.5054 0.9723
-3.9366 -5.2462 -2.5053 0.9723
-3.9044 -5.2702 -2.5053 0.9723
-3.8720 -5.2939 -2.5053 0.9723
-3.8394 -5.3175 -2.5053 0.9723
-3.8067 -5.3408 -2.5052 0.9723
-3.7409 -5.3870 -2.5052 0.9723
-3.7078 -5.4097 -2.5052 0.9723
-3.6746 -5.4323 -2.5051 0.9723
-3.6412 -5.4546 -2.5051 0.9723
-3.6076 -5.4768 -2.5051 0.9723
-3.5740 -5.4987 -2.5050 0.9723
-3.5402 -5.5204 -2.5050 0.9723
-3.5063 -5.5420 -2.5050 0.9723
-3.4722 -5.5633 -2.5050 0.9723
-3.4380 -5.5844 -2.5049 0.9723
-3.4037 -5.6053 -2.5049 0.9723
-3.3347 -5.6464 -2.5048 0.9723
-3.3000 -5.6667 -2.5048 0.9723
-3.2652 -5.6868 -2.5048 0.9723
-3.1952 -5.7262 -2.5047 0.9723
-3.1247 -5.7648 -2.5047 0.9723
-3.0893 -5.7838 -2.5046 0.9723
-3.0538 -5.8025 -2.5046 0.9723
-3.0181 -5.8210 -2.5046 0.9723
-2.9824 -5.8393 -2.5046 0.9723
-2.9465 -5.8574 -2.5045 0.9723
-2.9106 -5.8753 -2.5045 0.9723
-2.8745 -5.8929 -2.5045 0.9723
-2.8383 -5.9104 -2.5044 0.9723
-2.8020 -5.9276 -2.5044 0.9723
-2.7656 -5.9446 -2.5044 0.9723
-2.7291 -5.9613 -2.5043 0.9723
-2.6925 -5.9779 -2.5043 0.9723
-2.6558 -5.9942 -2.5043 0.9723
-2.6190 -6.0103 -2.5042 0.9723
-2.5821 -6.0261 -2.5042 0.9723
-2.5451 -6.0417 -2.5042 0.9723
-2.5080 -6.0571 -2.5042 0.9723
-2.4708 -6.0723 -2.5041 0.9723
-2.4296 -6.0775 -2.5001 0.9724
-2.3866 -6.0778 -2.4941 0.9724
-2.3439 -6.0781 -2.4883 0.9725
-2.3013 -6.0784 -2.4826 0.9726
-2.2590 -6.0787 -2.4771 0.9726
-2.2168 -6.0791 -2.4716 0.9727
-2.1748 -6.0794 -2.4663 0.9727
-2.1330 -6.0797 -2.4610 0.9728
-2.0914 -6.0800 -2.4559 0.9728
-2.0499 -6.0802 -2.4509 0.9729
-1.9273 -6.0837 -2.4376 0.9730
-1.8868 -6.0849 -2.4334 0.9731
-1.8463 -6.0860 -2.4293 0.9731
-1.8060 -6.0871 -2.4253 0.9732
-1.7658 -6.0881 -2.4213 0.9732
-1.7257 -6.0892 -2.4175 0.9733
-1.6858 -6.0902 -2.4138 0.9733
-1.6459 -6.0912 -2.4101 0.9733
-1.5666 -6.0931 -2.4031 0.9734
-1.5274 -6.0953 -2.4002 0.9735
-1.4526 -6.1134 -2.4002 0.9735
-1.4151 -6.1221 -2.4002 0.9735
-1.3776 -6.1306 -2.4001 0.9735
-1.3399 -6.1389 -2.4001 0.9735
-1.3023 -6.1469 -2.4001 0.9735
-1.2646 -6.1546 -2.4000 0.9735
-1.2269 -6.1622 -2.4000 0.9735
-1.1512 -6.1766 -2.3999 0.9735
-1.1134 -6.1835 -2.3999 0.9735
-1.0754 -6.1901 -2.3999 0.9735
-1.0375 -6.1965 -2.3998 0.9735
-0.9995 -6.2026 -2.3998 0.9735
-0.9615 -6.2086 -2.3998 0.9735
-0.9234 -6.2143 -2.3997 0.9735
-0.8853 -6.2197 -2.3997 0.9735
-0.8472 -6.2249 -2.3997 0.9735
-0.8090 -6.2299 -2.3996 0.9735
-0.7708 -6.2347 -2.3996 0.9735
-0.7326 -6.2392 -2.3996 0.9735
-0.6943 -6.2435 -2.3996 0.9735
-0.6561 -6.2475 -2.3995 0.9735
-0.6178 -6.2514 -2.3995 0.9735
-0.5428 -6.2774 -2.4068 0.9734
-5.5199 -3.0910 -2.5066 0.9731
-5.5009 -3.1247 -2.5066 0.9731
-5.4816 -3.1583 -2.5066 0.9731
-5.4621 -3.1919 -2.5066 0.9731
-5.4225 -3.2585 -2.5065 0.9731
-5.4024 -3.2916 -2.5065 0.9731
-5.3821 -3.3246 -2.5065 0.9731
-5.3200 -3.4229 -2.5065 0.9731
-5.2989 -3.4554 -2.5064 0.9731
-5.2776 -3.4878 -2.5064 0.9731
-5.2561 -3.5200 -2.5064 0.9731
-5.2125 -3.5842 -2.5064 0.9732
-5.1904 -3.6160 -2.5064 0.9732
-5.1681 -3.6477 -2.5063 0.9732
-5.1456 -3.6792 -2.5063 0.9732
-5.1229 -3.7107 -2.5063 0.9732
-5.1001 -3.7420 -2.5063 0.9732
-5.0770 -3.7731 -2.5063 0.9732
-5.0538 -3.8041 -2.5062 0.9732
-5.0303 -3.8350 -2.5062 0.9732
-5.0067 -3.8657 -2.5062 0.9732
-4.9829 -3.8963 -2.5062 0.9732
-4.9589 -3.9267 -2.5062 0.9732
-4.9347 -3.9569 -2.5062 0.9732
-4.9103 -3.9871 -2.5061 0.9732
-4.8858 -4.0170 -2.5061 0.9732
-4.8610 -4.0469 -2.5061 0.9732
-4.8361 -4.0765 -2.5061 0.9732
-4.8110 -4.1061 -2.5061 0.9732
-4.7857 -4.1354 -2.5060 0.9732
-4.7346 -4.1937 -2.5060 0.9732
-4.7088 -4.2226 -2.5060 0.9732
-4.6828 -4.2513 -2.5059 0.9732
-4.6566 -4.2799 -2.5059 0.9732
-4.6303 -4.3083 -2.5059 0.9732
-4.6037 -4.3365 -2.5059 0.9732
-4.5771 -4.3646 -2.5059 0.9732
-4.5502 -4.3925 -2.5058 0.9732
-4.5232 -4.4203 -2.5058 0.9732
-4.4960 -4.4479 -2.5058 0.9732
-4.4410 -4.5025 -2.5057 0.9732
-4.4133 -4.5296 -2.5057 0.9732
-4.3574 -4.5833 -2.5057 0.9732
-4.3292 -4.6099 -2.5057 0.9732
-4.3009 -4.6362 -2.5056 0.9732
-4.2723 -4.6625 -2.5056 0.9732
-4.2437 -4.6885 -2.5056 0.9732
-4.2148 -4.7144 -2.5056 0.9732
-4.1858 -4.7400 -2.5055 0.9732
-4.1567 -4.7656 -2.5055 0.9732
-4.1273 -4.7909 -2.5055 0.9732
-4.0979 -4.8160 -2.5055 0.9732
-4.0683 -4.8410 -2.5054 0.9732
-4.0086 -4.8904 -2.5054 0.9732
-3.9785 -4.9148 -2.5054 0.9732
-3.9483 -4.9390 -2.5053 0.9732
-3.9179 -4.9631 -2.5053 0.9732
-3.8874 -4.9869 -2.5053 0.9732
-3.8567 -5.0106 -2.5053 0.9732
-3.8259 -5.0341 -2.5052 0.9732
-3.7950 -5.0574 -2.5052 0.9732
-3.7638 -5.0805 -2.5052 0.9732
-3.7326 -5.1034 -2.5052 0.9732
-3.7012 -5.1261 -2.5051 0.9732
-3.6697 -5.1487 -2.5051 0.9732
-3.6381 -5.1710 -2.5051 0.9732
-3.6063 -5.1931 -2.5051 0.9732
-3.5744 -5.2151 -2.5050 0.9732
-3.5423 -5.2368 -2.5050 0.9732
-3.5101 -5.2583 -2.5050 0.9732
-3.4778 -5.2797 -2.5050 0.9732
-3.4454 -5.3008 -2.5049 0.9732
-3.4128 -5.3218 -2.5049 0.9732
-3.3801 -5.3425 -2.5049 0.9732
-3.3473 -5.3631 -2.5048 0.9732
-3.3143 -5.3834 -2.5048 0.9732
-3.2812 -5.4036 -2.5048 0.9732
-3.2480 -5.4235 -2.5048 0.9732
-3.2147 -5.4433 -2.5047 0.9732
-3.1813 -5.4628 -2.5047 0.9732
-3.1477 -5.4821 -2.5047 0.9732
-3.1140 -5.5012 -2.5047 0.9732
-3.0802 -5.5202 -2.5046 0.9732
-3.0463 -5.5389 -2.5046 0.9732
-3.0123 -5.5574 -2.5046 0.9732
-2.9782 -5.5757 -2.5045 0.9732
-2.9439 -5.5937 -2.5045 0.9732
-2.9096 -5.6116 -2.5045 0.9732
-2.8751 -5.6292 -2.5045 0.9732
-2.8405 -5.6467 -2.5044 0.9732
-2.8058 -5.6639 -2.5044 0.9732
-2.7711 -5.6809 -2.5044 0.9732
-2.7362 -5.6977 -2.5043 0.9732
-2.7012 -5.7143 -2.5043 0.9732
-2.6661 -5.7307 -2.5043 0.9732
-2.6309 -5.7469 -2.5043 0.9732
-2.5956 -5.7628 -2.5042 0.9732
-2.5602 -5.7785 -2.5042 0.9732
-2.5248 -5.7940 -2.5042 0.9732
-2.4892 -5.8093 -2.5041 0.9732
-2.4535 -5.8244 -2.5041 0.9732
-2.4178 -5.8392 -2.5041 0.9732
-2.3819 -5.8539 -2.5040 0.9732
-2.3460 -5.8683 -2.5040 0.9732
-2.3100 -5.8825 -2.5040 0.9732
-2.2738 -5.8965 -2.5040 0.9732
-2.2377 -5.9102 -2.5039 0.9732
-2.2014 -5.9237 -2.5039 0.9732
-2.1650 -5.9370 -2.5039 0.9732
-2.1286 -5.9501 -2.5038 0.9732
-2.0921 -5.9630 -2.5038 0.9732
-2.0555 -5.9756 -2.5038 0.9732
-2.0188 -5.9880 -2.5037 0.9732
-1.9821 -6.0002 -2.5037 0.9732
-1.9452 -6.0121 -2.5037 0.9732
-1.9084 -6.0239 -2.5037 0.9732
-1.8714 -6.0354 -2.5036 0.9732
-1.8344 -6.0467 -2.5036 0.9732
-1.7973 -6.0577 -2.5036 0.9732
-1.7601 -6.0685 -2.5035 0.9732
-1.7229 -6.0791 -2.5035 0.9732
-1.6830 -6.0804 -2.4997 0.9732
-1.6431 -6.0807 -2.4957 0.9733
-1.6033 -6.0809 -2.4917 0.9733
-1.5636 -6.0812 -2.4878 0.9733
-1.5239 -6.0815 -2.4841 0.9734
-1.4845 -6.0817 -2.4804 0.9734
-1.4451 -6.0820 -2.4769 0.9735
-1.4058 -6.0822 -2.4734 0.9735
-1.3667 -6.0824 -2.4700 0.9735
-1.2887 -6.0829 -2.4636 0.9736
-1.2499 -6.0831 -2.4606 0.9736
-1.2111 -6.0834 -2.4576 0.9737
-1.1725 -6.0836 -2.4548 0.9737
-1.1339 -6.0838 -2.4520 0.9737
-1.0954 -6.0841 -2.4494 0.9738
-1.0571 -6.0848 -2.4470 0.9738
-1.0189 -6.0855 -2.4447 0.9738
-0.9807 -6.0862 -2.4425 0.9738
-0.9426 -6.0868 -2.4404 0.9738
-0.9046 -6.0874 -2.4384 0.9739
-0.8666 -6.0880 -2.4365 0.9739
-0.8286 -6.0886 -2.4346 0.9739
-0.7907 -6.0891 -2.4329 0.9739
-0.7529 -6.0896 -2.4312 0.9739
-0.7151 -6.0902 -2.4296 0.9740
-0.6773 -6.0907 -2.4281 0.9740
-0.6396 -6.0911 -2.4267 0.9740
-0.6020 -6.0916 -2.4253 0.9740
-0.5644 -6.0920 -2.4241 0.9740
-0.5267 -6.0924 -2.4229 0.9740
-5.3263 -2.9825 -2.5065 0.9739
-5.3078 -3.0151 -2.5064 0.9739
-5.2892 -3.0475 -2.5064 0.9739
-5.2704 -3.0799 -2.5064 0.9739
-5.2515 -3.1121 -2.5064 0.9739
-5.2322 -3.1442 -2.5064 0.9740
-5.2129 -3.1761 -2.5064 0.9740
-5.1933 -3.2080 -2.5064 0.9740
-5.1735 -3.2397 -2.5063 0.9740
-5.1535 -3.2713 -2.5063 0.9740
-5.1333 -3.3028 -2.5063 0.9740
-5.1130 -3.3342 -2.5063 0.9740
-5.0924 -3.3654 -2.5063 0.9740
-5.0717 -3.3965 -2.5063 0.9740
-5.0507 -3.4275 -2.5062 0.9740
-5.0083 -3.4891 -2.5062 0.9740
-4.9868 -3.5197 -2.5062 0.9740
-4.9651 -3.5501 -2.5062 0.9740
-4.9432 -3.5805 -2.5062 0.9740
-4.9212 -3.6107 -2.5061 0.9740
-4.8989 -3.6407 -2.5061 0.9740
-4.8764 -3.6706 -2.5061 0.9740
-4.8538 -3.7004 -2.5061 0.9740
-4.8310 -3.7300 -2.5061 0.9740
-4.7849 -3.7889 -2.5060 0.9740
-4.7616 -3.8181 -2.5060 0.9740
-4.7380 -3.8472 -2.5060 0.9740
-4.7144 -3.8761 -2.5060 0.9740
-4.6905 -3.9049 -2.5059 0.9740
-4.6665 -3.9335 -2.5059 0.9740
-4.6422 -3.9620 -2.5059 0.9740
-4.6179 -3.9903 -2.5059 0.9740
-4.5933 -4.0185 -2.5059 0.9740
-4.5685 -4.0466 -2.5058 0.9740
-4.5436 -4.0744 -2.5058 0.9740
-4.5185 -4.1022 -2.5058 0.9740
-4.4933 -4.1297 -2.5058 0.9740
-4.4423 -4.1844 -2.5057 0.9740
-4.4165 -4.2115 -2.5057 0.9740
-4.3905 -4.2384 -2.5057 0.9740
-4.3645 -4.2652 -2.5057 0.9740
-4.3382 -4.2919 -2.5057 0.9740
-4.3118 -4.3183 -2.5056 0.9740
-4.2853 -4.3446 -2.5056 0.9740
-4.2585 -4.3708 -2.5056 0.9740
-4.2316 -4.3967 -2.5056 0.9740
-4.2046 -4.4225 -2.5055 0.9740
-4.1774 -4.4481 -2.5055 0.9740
-4.1500 -4.4736 -2.5055 0.9740
-4.1225 -4.4989 -2.5055 0.9740
-4.0948 -4.5240 -2.5055 0.9740
-4.0670 -4.5490 -2.5054 0.9740
-4.0390 -4.5738 -2.5054 0.9740
-3.9826 -4.6229 -2.5054 0.9740
-3.9541 -4.6471 -2.5053 0.9740
-3.9256 -4.6712 -2.5053 0.9740
-3.8968 -4.6951 -2.5053 0.9740
-3.8679 -4.7189 -2.5053 0.9740
-3.8098 -4.7658 -2.5052 0.9740
-3.7805 -4.7890 -2.5052 0.9740
-3.7510 -4.8121 -2.5052 0.9740
-3.7214 -4.8349 -2.5052 0.9740
-3.6917 -4.8575 -2.5051 0.9740
-3.6619 -4.8800 -2.5051 0.9740
-3.6319 -4.9023 -2.5051 0.9740
-3.6017 -4.9244 -2.5051 0.9740
-3.5714 -4.9463 -2.5050 0.9740
-3.5410 -4.9681 -2.5050 0.9740
-3.5105 -4.9896 -2.5050 0.9740
-3.4798 -5.0110 -2.5050 0.9740
-3.4490 -5.0322 -2.5049 0.9740
-3.4181 -5.0532 -2.5049 0.9740
-3.3871 -5.0740 -2.5049 0.9740
-3.3559 -5.0946 -2.5048 0.9740
-3.2931 -5.1352 -2.5048 0.9740
-3.2616 -5.1552 -2.5048 0.9740
-3.2299 -5.1750 -2.5047 0.9740
-3.1981 -5.1947 -2.5047 0.9740
-3.1662 -5.2141 -2.5047 0.9740
-3.1020 -5.2524 -2.5046 0.9740
-3.0373 -5.2899 -2.5046 0.9740
-3.0048 -5.3084 -2.5046 0.9740
-2.9722 -5.3266 -2.5045 0.9740
-2.9395 -5.3447 -2.5045 0.9740
-2.9067 -5.3625 -2.5045 0.9740
-2.8737 -5.3802 -2.5045 0.9740
-2.8407 -5.3976 -2.5044 0.9740
-2.8075 -5.4148 -2.5044 0.9740
-2.7743 -5.4319 -2.5044 0.9740
-2.7409 -5.4487 -2.5043 0.9740
-2.7075 -5.4654 -2.5043 0.9740
-2.6739 -5.4818 -2.5043 0.9740
-2.6402 -5.4980 -2.5043 0.9740
-2.6064 -5.5140 -2.5042 0.9740
-2.5726 -5.5298 -2.5042 0.9740
-2.5046 -5.5608 -2.5041 0.9740
-2.4704 -5.5760 -2.5041 0.9740
-2.4362 -5.5909 -2.5041 0.9740
-2.4019 -5.6057 -2.5041 0.9740
-2.3675 -5.6202 -2.5040 0.9740
-2.3330 -5.6346 -2.5040 0.9740
-2.2984 -5.6487 -2.5040 0.9740
-2.2638 -5.6626 -2.5039 0.9740
-2.2290 -5.6763 -2.5039 0.9740
-2.1942 -5.6898 -2.5039 0.9740
-2.1592 -5.7030 -2.5039 0.9740
-2.1242 -5.7161 -2.5038 0.9740
-2.0891 -5.7289 -2.5038 0.9740
-2.0187 -5.7540 -2.5037 0.9740
-1.9835 -5.7662 -2.5037 0.9740
-1.9480 -5.7781 -2.5037 0.9740
-1.9126 -5.7899 -2.5037 0.9740
-1.8771 -5.8014 -2.5036 0.9740
-1.8415 -5.8128 -2.5036 0.9740
-1.8058 -5.8239 -2.5036 0.9740
-1.7701 -5.8347 -2.5035 0.9740
-1.7343 -5.8454 -2.5035 0.9740
-1.6984 -5.8558 -2.5035 0.9740
-1.6625 -5.8661 -2.5034 0.9740
-1.6265 -5.8761 -2.5034 0.9740
-1.5904 -5.8859 -2.5034 0.9740
-1.5543 -5.8954 -2.5034 0.9740
-1.5182 -5.9048 -2.5033 0.9740
-1.4820 -5.9139 -2.5033 0.9740
-1.4457 -5.9228 -2.5033 0.9740
-1.4093 -5.9315 -2.5032 0.9740
-1.3730 -5.9399 -2.5032 0.9740
-1.3365 -5.9481 -2.5032 0.9740
-1.3000 -5.9561 -2.5031 0.9740
-1.2635 -5.9639 -2.5031 0.9740
-1.2270 -5.9715 -2.5031 0.9740
-1.1903 -5.9788 -2.5031 0.9740
-1.1537 -5.9859 -2.5030 0.9740
-1.1170 -5.9928 -2.5030 0.9740
-1.0434 -6.0059 -2.5029 0.9740
