ply
format ascii 1.0
element vertex 1557
property float32 x
property float32 y
property float32 z
property float32 I
end_header
38.2107 -59.2842 6.5616 0.7533
38.5332 -58.9864 6.5547 0.7535
39.6212 -59.0556 6.6159 0.7515
32.7336 -47.5183 5.3680 0.7931
33.1076 -47.4353 5.3815 0.7926
33.4838 -47.3523 5.3953 0.7922
33.8622 -47.2693 5.4094 0.7917
30.7825 -42.4181 4.8758 0.8101
30.0378 -40.8616 4.7180 0.8157
-44.4054 -59.0281 5.9513 0.7435
-44.2113 -59.5271 5.9741 0.7426
-43.8621 -59.8206 5.9764 0.7425
-42.7693 -59.0872 5.8768 0.7462
-35.7225 -49.9952 4.9506 0.7815
-35.5747 -50.4399 4.9729 0.7806
-35.2446 -50.6289 4.9701 0.7807
-34.3310 -50.6309 4.9286 0.7823
-33.4572 -50.0001 4.8471 0.7855
-33.5283 -50.7780 4.9025 0.7833
-33.7088 -51.7392 4.9752 0.7805
-38.8191 -63.7801 6.0156 0.7411
-18.1652 -33.9330 3.1010 0.8569
-17.5748 -33.3201 3.0351 0.8597
-17.1182 -32.9429 2.9911 0.8616
-16.8693 -33.4615 3.0192 0.8604
-16.4735 -33.1815 2.9847 0.8619
-16.4139 -33.5773 3.0112 0.8607
-16.0301 -33.3088 2.9782 0.8621
-15.8635 -33.4872 2.9854 0.8618
-15.5327 -33.3159 2.9616 0.8629
-16.0876 -35.0665 3.1084 0.8566
-15.8788 -35.1796 3.1097 0.8565
-15.6476 -35.8342 3.1504 0.8548
-25.9453 -60.4251 5.2982 0.7681
-24.1298 -58.1559 5.0728 0.7767
-16.7313 -41.0343 3.5703 0.8371
-16.4472 -41.0567 3.5634 0.8374
-16.1643 -41.0791 3.5567 0.8377
-14.0928 -36.4700 3.1501 0.8548
-13.8941 -36.6228 3.1559 0.8545
-13.6714 -36.7137 3.1564 0.8545
-13.4719 -36.8684 3.1625 0.8543
-14.5575 -40.6109 3.4758 0.8410
-13.3499 -38.7324 3.3008 0.8484
-13.1139 -38.8195 3.3013 0.8484
-11.4833 -34.6936 2.9444 0.8636
-11.5153 -35.5196 3.0084 0.8608
-11.1028 -34.9775 2.9567 0.8631
-10.8567 -34.9446 2.9482 0.8634
-10.6120 -34.9120 2.9399 0.8638
-11.5172 -38.7430 3.2565 0.8503
-10.9845 -39.6070 3.3115 0.8479
-10.7200 -39.5952 3.3050 0.8482
-10.4565 -39.5836 3.2986 0.8485
-10.1940 -39.5720 3.2924 0.8488
-14.9977 -59.7350 4.9621 0.7810
-14.1528 -57.8713 4.8000 0.7874
-13.9012 -58.3939 4.8362 0.7859
-13.6199 -58.8122 4.8638 0.7849
-13.3867 -59.4632 4.9108 0.7830
-13.4400 -61.4583 5.0686 0.7769
-12.7558 -60.0943 4.9496 0.7815
-12.7252 -61.8162 5.0849 0.7763
-12.3194 -61.7621 5.0741 0.7767
-11.6999 -62.6565 5.1354 0.7743
-11.3625 -62.9896 5.1569 0.7735
-10.8394 -62.2757 5.0929 0.7760
-10.5217 -62.7267 5.1244 0.7747
-9.5843 -61.7775 5.0369 0.7781
-9.3593 -62.8723 5.1214 0.7749
-3.6725 -65.8576 5.3143 0.7674
-3.2856 -66.2299 5.3426 0.7664
-2.8879 -66.4513 5.3590 0.7657
-1.8888 -60.6076 4.8854 0.7840
-1.5187 -60.6932 4.8915 0.7838
-0.7746 -60.7970 4.8987 0.7835
-0.4013 -60.7738 4.8966 0.7836
-0.0282 -60.7504 4.8946 0.7837
0.3363 -59.2824 4.7764 0.7883
1.0987 -61.2046 4.9320 0.7822
1.4737 -61.1687 4.9297 0.7823
1.8064 -59.7470 4.8159 0.7867
2.1750 -59.7862 4.8201 0.7866
2.5430 -59.7966 4.8221 0.7865
2.9108 -59.7980 4.8236 0.7864
3.1855 -58.0954 4.6877 0.7918
3.5957 -58.9555 4.7588 0.7890
4.4641 -60.8829 4.9184 0.7827
4.8183 -60.6105 4.8987 0.7835
5.2894 -61.7372 4.9923 0.7798
5.6667 -61.6870 4.9910 0.7799
6.1668 -62.8904 5.0913 0.7760
6.5515 -62.8404 5.0904 0.7760
6.9063 -62.5201 5.0678 0.7769
7.2538 -62.1672 5.0427 0.7779
7.5980 -61.8178 5.0181 0.7788
10.6293 -53.5480 4.3985 0.8033
25.3037 -59.0820 5.1784 0.7727
32.6571 -65.9330 5.9280 0.7443
30.0528 -58.8473 5.3237 0.7671
32.7656 -63.1984 5.7355 0.7515
33.1159 -62.9258 5.7291 0.7517
28.9979 -51.2228 4.7424 0.7896
29.2876 -51.0017 4.7385 0.7898
35.1816 -53.3897 5.1515 0.7737
19.0683 -28.1778 2.7414 0.8724
31.4105 -45.8082 4.4750 0.8002
30.2289 -40.7798 4.0898 0.8157
39.2931 -51.6699 5.2300 0.7707
46.6494 -57.5863 5.9710 0.7427
40.8924 -48.6214 5.1186 0.7750
41.1891 -48.3682 5.1185 0.7750
27.2986 -31.6608 3.3681 0.8456
25.6903 -29.4283 3.1474 0.8549
25.6796 -29.0541 3.1241 0.8559
8.0418 -8.9868 0.9716 0.9528
25.6589 -28.3223 3.0791 0.8578
25.6488 -27.9642 3.0572 0.8588
25.6389 -27.6113 3.0358 0.8597
25.6592 -27.2952 3.0183 0.8604
25.7735 -27.0818 3.0121 0.8607
26.2168 -26.8790 3.0251 0.8601
26.4401 -26.7771 3.0319 0.8598
26.6646 -26.6750 3.0388 0.8595
26.8692 -26.5517 3.0435 0.8593
26.8963 -26.2542 3.0283 0.8600
26.9234 -25.9598 3.0133 0.8606
26.9504 -25.6685 2.9986 0.8613
26.9866 -25.3889 2.9853 0.8618
27.1611 -24.9317 2.9705 0.8625
27.2182 -24.6780 2.9601 0.8629
27.2634 -24.4158 2.9487 0.8634
27.3084 -24.1556 2.9374 0.8639
27.3978 -23.6416 2.9156 0.8648
27.4408 -23.3865 2.9049 0.8653
27.4474 -22.8164 2.8757 0.8666
27.4774 -22.5575 2.8643 0.8670
27.5073 -22.3009 2.8531 0.8675
27.5372 -22.0464 2.8421 0.8680
27.5671 -21.7939 2.8313 0.8685
27.5968 -21.5435 2.8207 0.8689
27.6286 -21.2967 2.8106 0.8694
27.6604 -21.0519 2.8006 0.8698
27.6908 -20.8078 2.7907 0.8702
27.7212 -20.5656 2.7810 0.8707
27.7515 -20.3253 2.7715 0.8711
27.8017 -20.1010 2.7641 0.8714
27.8526 -19.8786 2.7570 0.8717
27.9574 -19.4398 2.7435 0.8723
27.9031 -19.1491 2.7266 0.8730
27.7417 -18.7889 2.6995 0.8742
27.6491 -18.4796 2.6794 0.8751
27.5581 -18.1751 2.6597 0.8759
27.4687 -17.8752 2.6405 0.8768
27.3808 -17.5797 2.6216 0.8776
27.2930 -17.2877 2.6030 0.8784
27.1509 -16.9650 2.5794 0.8794
27.0116 -16.6483 2.5565 0.8804
26.8620 -16.3295 2.5328 0.8815
26.6971 -16.0057 2.5079 0.8826
26.5356 -15.6882 2.4836 0.8836
26.3775 -15.3771 2.4600 0.8847
26.2708 -15.0996 2.4413 0.8855
26.1948 -14.8427 2.4257 0.8862
26.1199 -14.5892 2.4105 0.8869
26.0462 -14.3390 2.3955 0.8875
25.9736 -14.0920 2.3808 0.8882
25.9021 -13.8481 2.3664 0.8888
25.8315 -13.6072 2.3523 0.8894
25.7621 -13.3692 2.3385 0.8901
25.7563 -13.1662 2.3306 0.8904
25.8429 -13.0110 2.3311 0.8904
25.9296 -12.8558 2.3318 0.8903
26.0165 -12.7005 2.3326 0.8903
26.1037 -12.5452 2.3334 0.8903
26.1909 -12.3898 2.3344 0.8902
26.2784 -12.2344 2.3354 0.8902
26.3660 -12.0788 2.3366 0.8901
26.4539 -11.9232 2.3378 0.8901
26.4540 -11.7284 2.3315 0.8904
26.4501 -11.5330 2.3248 0.8907
26.4463 -11.3386 2.3183 0.8909
26.4620 -11.1536 2.3137 0.8912
26.5306 -10.9912 2.3137 0.8912
26.5994 -10.8289 2.3139 0.8911
26.6681 -10.6666 2.3141 0.8911
26.7371 -10.5042 2.3145 0.8911
26.8060 -10.3418 2.3149 0.8911
26.8492 -10.1696 2.3132 0.8912
26.8679 -9.9886 2.3095 0.8913
26.9054 -9.6283 2.3024 0.8917
26.9429 -9.2702 2.2957 0.8920
26.9596 -9.0912 2.2923 0.8921
26.9734 -8.9119 2.2888 0.8923
26.9872 -8.7331 2.2853 0.8924
27.0011 -8.5548 2.2820 0.8926
27.0147 -8.3771 2.2788 0.8927
27.0391 -8.0221 2.2724 0.8930
27.0758 -7.4935 2.2635 0.8934
27.0882 -7.3182 2.2607 0.8935
27.1006 -7.1433 2.2580 0.8936
27.0967 -6.9647 2.2541 0.8938
27.0919 -6.7865 2.2502 0.8940
27.0872 -6.6089 2.2464 0.8941
27.0828 -6.4319 2.2427 0.8943
27.0910 -6.2585 2.2402 0.8944
27.1076 -5.9127 2.2354 0.8946
27.1160 -5.7404 2.2331 0.8947
27.1245 -5.5685 2.2310 0.8948
27.1330 -5.3969 2.2289 0.8949
27.1482 -5.0543 2.2249 0.8951
27.1518 -4.7108 2.2203 0.8953
27.1536 -4.5397 2.2181 0.8954
27.1598 -4.3695 2.2164 0.8955
27.1691 -4.2001 2.2150 0.8955
27.1785 -4.0309 2.2137 0.8956
27.1878 -3.8619 2.2125 0.8957
27.1973 -3.6931 2.2114 0.8957
27.2069 -3.5244 2.2103 0.8958
27.2165 -3.3560 2.2094 0.8958
27.2262 -3.1876 2.2086 0.8958
27.2396 -3.0198 2.2081 0.8959
27.2618 -2.8530 2.2085 0.8958
27.2841 -2.6862 2.2089 0.8958
27.3069 -2.5192 2.2094 0.8958
27.3307 -2.3524 2.2102 0.8958
27.3546 -2.1854 2.2110 0.8957
27.3786 -2.0182 2.2119 0.8957
27.4027 -1.8510 2.2128 0.8956
27.4269 -1.6836 2.2139 0.8956
27.4512 -1.5160 2.2151 0.8955
27.5001 -1.1803 2.2177 0.8954
27.5269 -1.0122 2.2193 0.8954
27.5667 -0.8442 2.2221 0.8952
27.5878 -0.6754 2.2234 0.8952
27.6052 -0.5063 2.2245 0.8951
27.6228 -0.3371 2.2257 0.8951
27.6403 -0.1676 2.2270 0.8950
27.6581 0.0020 2.2284 0.8949
27.6758 0.1719 2.2299 0.8949
27.7117 0.5124 2.2331 0.8947
27.7480 0.8539 2.2367 0.8946
27.7496 1.1951 2.2378 0.8945
27.7360 1.3651 2.2374 0.8945
27.7224 1.5351 2.2370 0.8946
27.6956 1.8749 2.2365 0.8946
27.6690 2.2146 2.2364 0.8946
27.6558 2.3845 2.2365 0.8946
27.6426 2.5544 2.2366 0.8946
27.6295 2.7243 2.2369 0.8946
27.6165 2.8943 2.2372 0.8946
27.5993 3.0638 2.2373 0.8945
27.5673 3.2317 2.2363 0.8946
27.5446 3.4005 2.2361 0.8946
27.5050 3.7390 2.2364 0.8946
27.4853 3.9083 2.2367 0.8946
27.4656 4.0776 2.2371 0.8946
27.4461 4.2471 2.2376 0.8945
27.4265 4.4166 2.2382 0.8945
27.4071 4.5862 2.2389 0.8945
27.3877 4.7560 2.2396 0.8944
27.3683 4.9258 2.2405 0.8944
27.3415 5.0945 2.2408 0.8944
27.2874 5.2579 2.2390 0.8945
27.2336 5.4211 2.2372 0.8946
27.1799 5.5841 2.2356 0.8946
27.1269 5.7470 2.2341 0.8947
27.0904 5.9132 2.2340 0.8947
27.0541 6.0795 2.2341 0.8947
27.0178 6.2458 2.2342 0.8947
26.9815 6.4121 2.2344 0.8947
26.9454 6.5785 2.2347 0.8947
26.9093 6.7450 2.2351 0.8946
26.8732 6.9115 2.2356 0.8946
26.8372 7.0782 2.2362 0.8946
26.7997 7.2445 2.2367 0.8946
26.7621 7.4109 2.2373 0.8945
26.7246 7.5774 2.2380 0.8945
26.6870 7.7440 2.2388 0.8945
26.6495 7.9108 2.2397 0.8944
26.6122 8.0778 2.2407 0.8944
26.5748 8.2449 2.2418 0.8943
26.5428 8.4140 2.2434 0.8943
26.5224 8.5870 2.2461 0.8942
26.5019 8.7605 2.2489 0.8940
26.4816 8.9344 2.2518 0.8939
26.4613 9.1088 2.2547 0.8938
26.4948 9.3026 2.2624 0.8934
26.5343 9.4999 2.2707 0.8931
26.5742 9.6986 2.2792 0.8927
26.6146 9.8988 2.2878 0.8923
26.6553 10.1007 2.2966 0.8919
26.6895 10.3014 2.3050 0.8915
26.7004 10.4944 2.3114 0.8913
26.7114 10.6884 2.3180 0.8910
26.7226 10.8837 2.3247 0.8907
26.7339 11.0801 2.3316 0.8904
26.8118 11.3057 2.3444 0.8898
26.9339 11.5524 2.3612 0.8890
27.0578 11.8027 2.3784 0.8883
27.1120 12.0250 2.3896 0.8878
27.1339 12.2345 2.3981 0.8874
27.1561 12.4456 2.4068 0.8870
27.1785 12.6584 2.4156 0.8866
27.2011 12.8726 2.4246 0.8862
27.2240 13.0886 2.4337 0.8858
27.2990 13.3316 2.4477 0.8852
27.4189 13.5992 2.4659 0.8844
27.4900 13.8454 2.4799 0.8838
27.5620 14.0944 2.4941 0.8832
27.6349 14.3463 2.5087 0.8825
27.7087 14.6012 2.5234 0.8819
27.7834 14.8592 2.5385 0.8812
28.0042 15.1991 2.5672 0.8800
29.2238 16.0940 2.6880 0.8747
29.2870 16.3638 2.7030 0.8740
29.3509 16.6368 2.7182 0.8734
29.4157 16.9129 2.7338 0.8727
29.4813 17.1923 2.7497 0.8720
29.8069 17.6282 2.7901 0.8703
31.2681 18.7524 2.9376 0.8639
31.7344 19.5657 3.0037 0.8610
31.8599 19.9140 3.0271 0.8600
33.3497 21.1309 3.1809 0.8535
36.5085 23.4478 3.4958 0.8402
36.2738 23.6128 3.4872 0.8406
36.0404 23.7771 3.4787 0.8409
35.8082 23.9407 3.4704 0.8413
35.5601 24.4117 3.4752 0.8411
36.4038 25.3210 3.5727 0.8370
19.2084 14.4383 1.9361 0.9081
18.5616 57.4650 4.8654 0.7848
10.3120 35.6278 2.9884 0.8617
-4.3071 69.3902 5.6014 0.7565
-8.3999 64.4963 5.2403 0.7703
-0.4339 2.4031 0.1967 0.9902
-0.4588 2.3743 0.1948 0.9903
-0.4729 2.3689 0.1946 0.9904
-0.4877 2.3674 0.1947 0.9903
-0.5207 2.3792 0.1962 0.9903
-0.5920 2.4851 0.2058 0.9898
-0.5921 2.4197 0.2007 0.9901
-0.5923 2.3575 0.1958 0.9903
-0.5924 2.2982 0.1912 0.9905
-0.6055 2.2908 0.1909 0.9905
-0.6206 2.2909 0.1912 0.9905
-0.6358 2.2910 0.1916 0.9905
-0.6510 2.2911 0.1919 0.9905
-0.6662 2.2912 0.1922 0.9905
-0.6815 2.2913 0.1926 0.9905
-0.6969 2.2914 0.1930 0.9904
-0.7123 2.2916 0.1933 0.9904
-0.7268 2.2885 0.1935 0.9904
-0.7418 2.2869 0.1937 0.9904
-0.7568 2.2854 0.1940 0.9904
-0.7719 2.2839 0.1942 0.9904
-0.7871 2.2824 0.1945 0.9904
-0.8022 2.2809 0.1948 0.9903
-0.8419 2.3475 0.2009 0.9900
-0.8584 2.3480 0.2014 0.9900
-0.8750 2.3486 0.2019 0.9900
-0.8916 2.3491 0.2024 0.9900
-0.9084 2.3497 0.2030 0.9899
-0.9252 2.3503 0.2035 0.9899
-0.9422 2.3509 0.2041 0.9899
-8.5740 2.3065 0.7154 0.9650
-8.5952 2.2557 0.7159 0.9650
-43.6236 2.3621 3.5198 0.8392
-41.4577 -35.8624 4.4165 0.8025
-40.5041 -35.4745 4.3380 0.8057
-40.3486 -35.7783 4.3448 0.8054
-40.0388 -35.9450 4.3351 0.8058
-39.7078 -36.0905 4.3232 0.8063
-39.4239 -36.2769 4.3164 0.8065
-38.8456 -36.1875 4.2774 0.8081
-39.1911 -36.9613 4.3403 0.8056
-38.9771 -37.2141 4.3418 0.8055
-38.7057 -37.4118 4.3371 0.8057
-37.7240 -36.9134 4.2524 0.8091
-37.5634 -37.2104 4.2599 0.8088
-37.1108 -37.2161 4.2344 0.8098
-36.6011 -37.1584 4.2022 0.8111
-36.2211 -37.2269 4.1848 0.8119
-36.7456 -38.2327 4.2724 0.8083
-36.8049 -38.7679 4.3069 0.8069
-44.1430 -59.7028 5.9822 0.7423
-43.5433 -59.6542 5.9504 0.7435
-42.9264 -59.5735 5.9160 0.7448
-35.4841 -50.5419 4.9755 0.7805
-35.0835 -50.6292 4.9628 0.7810
-34.6261 -50.6302 4.9420 0.7818
-33.7462 -49.9995 4.8601 0.7850
-33.4142 -50.1688 4.8565 0.7851
-33.5908 -51.1113 4.9277 0.7824
-33.7735 -52.0829 5.0013 0.7795
-38.6458 -63.8036 6.0100 0.7413
-17.7271 -33.2864 3.0384 0.8596
-17.4929 -33.3382 3.0333 0.8598
-17.0750 -33.0330 2.9960 0.8614
-16.9507 -33.2920 3.0099 0.8608
-16.7949 -33.4928 3.0187 0.8604
-16.4705 -33.3554 2.9972 0.8613
-16.3332 -33.5952 3.0097 0.8608
-16.0709 -33.5783 2.9992 0.8612
-15.5323 -32.9710 2.9364 0.8639
-16.1742 -34.8876 3.0982 0.8570
-16.0145 -35.1061 3.1089 0.8565
-15.8056 -35.2192 3.1102 0.8565
-15.9517 -36.1367 3.1825 0.8534
-15.4863 -35.6736 3.1333 0.8555
-25.7884 -60.4178 5.2927 0.7683
-25.3424 -60.3969 5.2771 0.7689
-24.8988 -60.3760 5.2618 0.7694
-16.6317 -41.0421 3.5679 0.8372
-16.0655 -41.0869 3.5544 0.8377
-14.0233 -36.5234 3.1521 0.8547
-13.7981 -36.6069 3.1519 0.8547
-13.6029 -36.7713 3.1588 0.8544
-14.7242 -40.5658 3.4770 0.8410
-14.4677 -40.6352 3.4752 0.8411
-13.5796 -38.8948 3.3192 0.8476
-13.2655 -38.7580 3.3005 0.8484
-13.0493 -38.9040 3.3061 0.8482
-11.5633 -35.1885 2.9842 0.8619
-11.4892 -35.7004 3.0216 0.8603
-11.0164 -34.9660 2.9537 0.8632
-10.7708 -34.9332 2.9453 0.8636
-11.6680 -38.6846 3.2555 0.8503
-11.6549 -39.5171 3.3194 0.8476
-11.4233 -39.6266 3.3227 0.8475
-10.8918 -39.6028 3.3092 0.8480
-10.6275 -39.5911 3.3027 0.8483
-10.3644 -39.5795 3.2964 0.8486
-10.1023 -39.5680 3.2902 0.8488
-13.6389 -57.8435 4.7882 0.7878
-13.5556 -59.1122 4.8862 0.7840
-13.2949 -59.6539 4.9242 0.7825
-13.3846 -61.8419 5.0979 0.7758
-12.9898 -61.8515 5.0920 0.7760
-12.5829 -61.7972 5.0811 0.7764
-12.1294 -61.4983 5.0503 0.7776
-11.7741 -61.6893 5.0600 0.7772
-11.5821 -62.7729 5.1429 0.7740
-10.9500 -61.4591 5.0297 0.7784
-10.7273 -62.4254 5.1033 0.7756
-10.3552 -62.5581 5.1088 0.7753
-9.6499 -63.0956 5.1426 0.7740
-9.2037 -62.7527 5.1100 0.7753
-3.5375 -65.9875 5.3242 0.7671
-3.1492 -66.3612 5.3527 0.7660
-2.7047 -65.4810 5.2802 0.7687
-2.1289 -60.5520 4.8816 0.7842
-1.7568 -60.5520 4.8806 0.7842
-1.3888 -60.7232 4.8937 0.7837
-1.0174 -60.8092 4.9000 0.7834
-0.6438 -60.7889 4.8980 0.7835
-0.2706 -60.7656 4.8959 0.7836
0.0996 -59.1314 4.7641 0.7888
0.4644 -59.3642 4.7830 0.7880
0.8549 -61.2280 4.9335 0.7821
1.2301 -61.1920 4.9312 0.7822
1.6071 -61.2387 4.9356 0.7821
1.9354 -59.7607 4.8174 0.7867
2.3040 -59.7957 4.8212 0.7865
2.6718 -59.7971 4.8226 0.7865
3.0397 -59.7985 4.8241 0.7864
3.3278 -58.3937 4.7123 0.7908
3.7424 -59.2630 4.7842 0.7880
4.2323 -61.0606 4.9314 0.7822
4.5885 -60.7873 4.9115 0.7830
5.4216 -61.7196 4.9918 0.7799
5.9435 -63.2077 5.1150 0.7751
6.6787 -62.7512 5.0843 0.7763
7.0284 -62.3961 5.0590 0.7773
7.3748 -62.0444 5.0340 0.7782
7.8498 -62.7521 5.0953 0.7759
10.7473 -53.5395 4.3997 0.8032
25.4611 -59.0983 5.1846 0.7724
33.0236 -66.3141 5.9687 0.7428
29.8871 -59.1036 5.3361 0.7666
30.2601 -58.9400 5.3380 0.7665
32.8350 -63.0006 5.7239 0.7519
29.0858 -51.1213 4.7388 0.7898
29.4519 -51.0334 4.7473 0.7894
35.2990 -53.3180 5.1519 0.7737
35.5718 -53.0201 5.1441 0.7740
19.1274 -28.1347 2.7410 0.8724
36.1082 -52.4171 5.1282 0.7746
36.3755 -52.1176 5.1207 0.7749
30.7784 -42.4124 4.2221 0.8103
30.0341 -40.8565 4.0855 0.8159
-37.6071 -49.9911 4.2621 0.7782
-37.3116 -50.2373 4.2635 0.7781
-37.1195 -50.6249 4.2770 0.7775
-36.6446 -50.6259 4.2580 0.7784
-36.1739 -50.6269 4.2393 0.7792
-35.7073 -50.6279 4.2210 0.7801
-35.2447 -50.6289 4.2029 0.7809
-34.7859 -50.6299 4.1852 0.7817
-34.3310 -50.6309 4.1678 0.7825
-33.8799 -50.6319 4.1507 0.7833
-33.4324 -50.6329 4.1339 0.7841
-32.9886 -50.6338 4.1173 0.7848
-32.5482 -50.6348 4.1011 0.7856
-32.1114 -50.6357 4.0851 0.7863
-31.7652 -51.4764 4.1212 0.7847
-31.7668 -52.1932 4.1629 0.7827
-31.8602 -53.0775 4.2177 0.7802
-31.7234 -53.5924 4.2431 0.7790
-31.2681 -53.5705 4.2261 0.7798
-30.8165 -53.5491 4.2094 0.7806
-30.3685 -53.5280 4.1930 0.7813
-29.9242 -53.5074 4.1769 0.7821
-29.4833 -53.4872 4.1611 0.7828
-29.6804 -54.6352 4.2362 0.7794
-17.7495 -33.1564 2.5623 0.8600
-17.5158 -33.2083 2.5580 0.8603
-17.2830 -33.2600 2.5537 0.8605
-16.9835 -33.1799 2.5395 0.8612
-16.4634 -33.1612 2.5224 0.8621
-16.3592 -33.4656 2.5379 0.8613
-16.0248 -33.2980 2.5177 0.8623
-15.9016 -33.5675 2.5306 0.8616
-16.2661 -34.8890 2.6227 0.8570
-16.8819 -36.7980 2.7584 0.8502
-16.6320 -36.8483 2.7544 0.8504
-16.1451 -36.3632 2.7107 0.8526
-15.6734 -35.8932 2.6684 0.8547
-26.1285 -60.8517 4.5120 0.7668
-25.3811 -61.1719 4.5123 0.7668
-16.5942 -40.6982 2.9945 0.8384
-16.3128 -40.7210 2.9887 0.8387
-16.0324 -40.7439 2.9831 0.8390
-15.7531 -40.7667 2.9777 0.8393
-15.3354 -40.4219 2.9455 0.8409
-13.6698 -36.7094 2.6689 0.8547
-13.4709 -36.8656 2.6741 0.8544
-14.5819 -40.6789 2.9442 0.8409
-14.3252 -40.7484 2.9428 0.8410
-14.0687 -40.8178 2.9415 0.8411
-13.2949 -39.3554 2.8302 0.8466
-12.9960 -39.2638 2.8178 0.8472
-12.6976 -39.1663 2.8052 0.8478
-12.3944 -39.0466 2.7911 0.8485
-12.0943 -38.9281 2.7773 0.8492
-11.7971 -38.8107 2.7637 0.8499
-11.7188 -39.4212 2.8020 0.8480
-11.4526 -39.4097 2.7961 0.8483
-11.1875 -39.3982 2.7904 0.8486
-10.9235 -39.3869 2.7848 0.8488
-10.6605 -39.3756 2.7793 0.8491
-10.8215 -40.9656 2.8868 0.8438
-15.7342 -61.0788 4.2973 0.7766
-15.0072 -59.7728 4.1988 0.7811
-15.1311 -63.5600 4.4515 0.7695
-14.7894 -63.8619 4.4662 0.7689
-15.2974 -67.9504 4.7454 0.7564
-14.3784 -65.7495 4.5855 0.7635
-13.1297 -61.8563 4.3083 0.7761
-12.4493 -60.4759 4.2067 0.7807
-12.3166 -61.7479 4.2899 0.7769
-11.9126 -61.6940 4.2810 0.7773
-11.5102 -61.6404 4.2722 0.7777
-11.1676 -61.9094 4.2861 0.7771
-11.1151 -63.8593 4.4163 0.7711
-10.5417 -62.8458 4.3416 0.7745
-10.0679 -62.3652 4.3041 0.7763
-9.9415 -64.0798 4.4181 0.7711
-9.5507 -64.1583 4.4194 0.7710
-2.6748 -61.5479 4.1973 0.7811
-2.2273 -59.6981 4.0702 0.7870
-1.8662 -59.8806 4.0817 0.7865
-1.4975 -59.8468 4.0787 0.7866
-1.1375 -60.2482 4.1055 0.7854
-0.7627 -59.8627 4.0789 0.7866
-0.3913 -59.2636 4.0378 0.7885
-0.0283 -60.8062 4.1428 0.7837
0.3460 -60.9941 4.1557 0.7831
0.7200 -60.9558 4.1533 0.7832
1.0972 -61.1200 4.1649 0.7826
1.4716 -61.0842 4.1630 0.7827
1.9198 -63.4958 4.3281 0.7752
2.3995 -65.9565 4.4967 0.7675
2.7990 -65.8161 4.4882 0.7679
3.1961 -65.6579 4.4787 0.7683
3.7860 -62.0742 4.2371 0.7793
4.1551 -61.8744 4.2251 0.7799
4.5331 -61.8242 4.2235 0.7799
4.9108 -61.7739 4.2220 0.7800
5.6655 -61.6736 4.2196 0.7801
6.0425 -61.6234 4.2186 0.7802
6.6754 -64.0286 4.3860 0.7725
6.9160 -62.6079 4.2915 0.7768
7.2640 -62.2541 4.2703 0.7778
26.8803 -69.7551 5.0932 0.7410
25.3006 -59.0748 4.3785 0.7729
30.0492 -58.8401 4.5014 0.7673
32.7573 -63.1823 4.8489 0.7518
33.1080 -62.9107 4.8435 0.7520
28.9942 -51.2163 4.0098 0.7898
29.2828 -50.9933 4.0064 0.7900
19.0676 -28.1769 2.3177 0.8725
29.6856 -43.2925 3.5764 0.8102
29.7328 -42.7958 3.5504 0.8115
30.2488 -42.9731 3.5804 0.8100
30.8103 -43.2051 3.6155 0.8084
30.7163 -42.5188 3.5737 0.8103
29.7093 -40.5975 3.4275 0.8173
29.6382 -39.9830 3.3909 0.8191
29.2698 -38.9836 3.3213 0.8225
28.8279 -37.9082 3.2447 0.8262
28.4067 -36.8822 3.1718 0.8297
27.6620 -35.0176 3.0404 0.8362
27.5156 -34.3961 3.0010 0.8381
27.3731 -33.7907 2.9628 0.8400
26.1230 -31.8459 2.8063 0.8478
25.6609 -30.8938 2.7362 0.8513
25.5981 -30.4363 2.7096 0.8526
25.5367 -29.9875 2.6835 0.8539
25.4764 -29.5474 2.6581 0.8552
25.4519 -29.1551 2.6368 0.8563
25.4258 -28.0650 2.5801 0.8591
25.4140 -27.3691 2.5446 0.8609
25.4460 -27.0685 2.5312 0.8616
25.5801 -26.5503 2.5119 0.8626
25.6463 -26.2941 2.5025 0.8631
25.9383 -25.9484 2.4997 0.8632
26.1428 -25.8339 2.5041 0.8630
26.1728 -25.5479 2.4919 0.8636
26.2350 -25.2960 2.4830 0.8641
26.3226 -25.0705 2.4767 0.8644
26.4098 -24.8463 2.4705 0.8647
26.4968 -24.6233 2.4644 0.8650
26.5835 -24.4015 2.4585 0.8653
26.6480 -24.1611 2.4507 0.8657
26.6945 -23.9062 2.4415 0.8662
26.7866 -23.4026 2.4234 0.8671
26.7721 -23.1017 2.4092 0.8678
26.7488 -22.2357 2.3699 0.8698
26.7808 -21.9857 2.3607 0.8703
26.8126 -21.7377 2.3517 0.8708
26.8444 -21.4917 2.3429 0.8712
26.8793 -21.2502 2.3345 0.8716
26.9181 -21.0137 2.3266 0.8720
26.9567 -20.7788 2.3189 0.8724
26.9938 -20.5446 2.3112 0.8728
27.0258 -20.3082 2.3032 0.8732
27.0578 -20.0735 2.2954 0.8737
27.0896 -19.8404 2.2877 0.8740
27.1213 -19.6091 2.2802 0.8744
27.1530 -19.3793 2.2728 0.8748
27.0527 -19.0582 2.2546 0.8758
26.9166 -18.7162 2.2336 0.8768
26.7831 -18.3805 2.2132 0.8779
26.6934 -18.0789 2.1965 0.8787
26.6118 -17.7864 2.1808 0.8796
26.5315 -17.4981 2.1654 0.8804
26.4371 -17.2038 2.1490 0.8812
26.3054 -16.8892 2.1298 0.8822
26.1762 -16.5803 2.1111 0.8832
26.0496 -16.2769 2.0928 0.8841
25.9253 -15.9788 2.0749 0.8851
25.8033 -15.6859 2.0574 0.8860
25.7208 -15.4204 2.0432 0.8867
25.7000 -15.1942 2.0341 0.8872
25.6825 -14.9719 2.0254 0.8876
25.6310 -14.3161 2.0002 0.8890
25.6142 -14.1012 1.9921 0.8894
25.5976 -13.8880 1.9842 0.8898
25.5812 -13.6765 1.9763 0.8902
25.5648 -13.4667 1.9687 0.8906
25.5487 -13.2585 1.9611 0.8910
25.5561 -13.0638 1.9555 0.8913
25.5891 -12.8832 1.9519 0.8915
25.6240 -12.7042 1.9486 0.8917
25.6588 -12.5259 1.9454 0.8918
25.6935 -12.3481 1.9422 0.8920
25.7281 -12.1709 1.9392 0.8922
25.7983 -12.0109 1.9388 0.8922
25.8842 -11.8581 1.9398 0.8921
25.9702 -11.7052 1.9408 0.8921
26.0564 -11.5521 1.9419 0.8920
26.0683 -11.3665 1.9376 0.8922
26.0733 -11.1787 1.9328 0.8925
26.1410 -11.0183 1.9328 0.8925
26.2088 -10.8579 1.9328 0.8925
26.3446 -10.5371 1.9332 0.8925
26.4126 -10.3767 1.9334 0.8925
26.4807 -10.2163 1.9338 0.8924
26.5489 -10.0558 1.9342 0.8924
26.5862 -9.8838 1.9325 0.8925
26.6051 -9.7054 1.9295 0.8927
26.6430 -9.3503 1.9238 0.8930
26.6620 -9.1735 1.9211 0.8931
26.6763 -8.9957 1.9181 0.8933
26.6904 -8.8184 1.9152 0.8934
26.7045 -8.6416 1.9123 0.8936
26.7186 -8.4653 1.9096 0.8937
26.7328 -8.2896 1.9069 0.8939
26.7467 -8.1143 1.9043 0.8940
26.7717 -7.7643 1.8992 0.8943
26.7842 -7.5900 1.8967 0.8944
26.7967 -7.4162 1.8943 0.8945
26.8092 -7.2428 1.8920 0.8946
26.8113 -6.8913 1.8861 0.8949
26.8071 -6.7151 1.8829 0.8951
26.8029 -6.5395 1.8797 0.8953
26.7989 -6.3645 1.8766 0.8954
26.7949 -6.1900 1.8737 0.8956
26.8001 -6.0182 1.8714 0.8957
26.8086 -5.8475 1.8695 0.8958
26.8172 -5.6772 1.8676 0.8959
26.8258 -5.5072 1.8658 0.8960
26.8346 -5.3375 1.8641 0.8961
26.8433 -5.1682 1.8625 0.8962
26.8499 -4.8284 1.8587 0.8964
26.8520 -4.6588 1.8568 0.8965
26.8541 -4.4896 1.8550 0.8966
26.8563 -4.3207 1.8533 0.8967
26.8594 -4.1522 1.8517 0.8968
26.8688 -3.9850 1.8507 0.8968
26.8783 -3.8179 1.8497 0.8969
26.8878 -3.6510 1.8487 0.8969
26.8974 -3.4843 1.8479 0.8970
26.9070 -3.3178 1.8471 0.8970
26.9167 -3.1514 1.8464 0.8970
26.9326 -2.9858 1.8462 0.8971
26.9764 -2.6559 1.8468 0.8970
26.9985 -2.4908 1.8473 0.8970
27.0206 -2.3257 1.8478 0.8970
27.0439 -2.1605 1.8484 0.8969
27.0675 -1.9953 1.8492 0.8969
27.0912 -1.8299 1.8500 0.8969
27.1149 -1.6644 1.8509 0.8968
27.1387 -1.4987 1.8518 0.8968
27.1627 -1.3329 1.8529 0.8967
27.1867 -1.1668 1.8540 0.8966
27.2141 -1.0007 1.8554 0.8966
27.2529 -0.8346 1.8577 0.8964
27.2920 -0.6682 1.8600 0.8963
27.3235 -0.5012 1.8619 0.8962
27.3407 -0.3336 1.8629 0.8962
27.3580 -0.1659 1.8640 0.8961
27.3754 0.0020 1.8651 0.8961
27.3928 0.1702 1.8664 0.8960
27.4279 0.5071 1.8690 0.8958
27.4456 0.6760 1.8705 0.8958
27.4634 0.8451 1.8720 0.8957
27.4790 1.0145 1.8735 0.8956
27.4756 1.3523 1.8742 0.8956
27.4622 1.5207 1.8739 0.8956
27.4490 1.6890 1.8737 0.8956
27.4225 2.0255 1.8734 0.8956
27.4094 2.1938 1.8734 0.8956
27.3962 2.3621 1.8735 0.8956
27.3832 2.5304 1.8736 0.8956
27.3702 2.6987 1.8738 0.8956
27.3572 2.8671 1.8741 0.8956
27.3434 3.0354 1.8744 0.8956
27.3119 3.2017 1.8736 0.8956
27.2804 3.3679 1.8728 0.8957
27.2490 3.5340 1.8721 0.8957
27.2251 3.7010 1.8720 0.8957
27.2056 3.8685 1.8722 0.8957
27.1861 4.0361 1.8725 0.8957
27.1666 4.2038 1.8729 0.8956
27.1472 4.3716 1.8734 0.8956
27.1279 4.5395 1.8740 0.8956
27.1085 4.7075 1.8746 0.8956
27.0893 4.8756 1.8753 0.8955
27.0701 5.0439 1.8761 0.8955
27.0200 5.2064 1.8748 0.8955
26.9669 5.3680 1.8734 0.8956
26.9139 5.5294 1.8720 0.8957
26.8610 5.6906 1.8707 0.8958
26.8083 5.8516 1.8695 0.8958
26.7556 6.0124 1.8684 0.8959
26.6681 6.3376 1.8676 0.8959
26.6323 6.5020 1.8678 0.8959
26.5608 6.8312 1.8685 0.8959
26.5253 6.9959 1.8690 0.8958
26.4889 7.1605 1.8695 0.8958
26.4517 7.3249 1.8700 0.8958
26.4144 7.4895 1.8706 0.8958
26.3772 7.6541 1.8713 0.8957
26.3401 7.8190 1.8720 0.8957
26.2659 8.1491 1.8737 0.8956
26.2288 8.3144 1.8747 0.8956
26.1918 8.4800 1.8757 0.8955
26.1547 8.6457 1.8768 0.8954
26.1203 8.8125 1.8782 0.8954
26.0997 8.9844 1.8806 0.8952
26.1269 9.3540 1.8907 0.8947
26.1647 9.5491 1.8977 0.8943
26.2029 9.7457 1.9047 0.8940
26.2415 9.9438 1.9119 0.8936
26.2804 10.1435 1.9193 0.8932
26.3197 10.3447 1.9268 0.8928
26.3594 10.5476 1.9344 0.8924
26.3742 10.7418 1.9402 0.8921
26.3844 10.9352 1.9459 0.8918
26.3947 11.1298 1.9517 0.8915
26.4965 11.3648 1.9643 0.8908
26.6153 11.6097 1.9784 0.8901
26.7358 11.8581 1.9927 0.8894
26.8583 12.1102 2.0073 0.8886
26.8824 12.3202 2.0147 0.8882
26.9036 12.5303 2.0221 0.8878
26.9249 12.7420 2.0295 0.8874
26.9465 12.9552 2.0371 0.8870
27.0768 13.4295 2.0592 0.8859
27.1951 13.6968 2.0746 0.8851
27.2807 13.9505 2.0876 0.8844
27.3512 14.1990 2.0996 0.8838
27.4226 14.4504 2.1119 0.8831
27.4949 14.7049 2.1244 0.8825
27.5681 14.9624 2.1371 0.8818
27.6431 15.2235 2.1501 0.8812
28.9358 16.4015 2.2661 0.8752
28.9972 16.6723 2.2789 0.8745
29.0596 16.9463 2.2919 0.8738
29.1227 17.2235 2.3052 0.8731
29.5784 17.7390 2.3499 0.8709
29.8216 18.1347 2.3780 0.8694
30.8266 19.0060 2.4674 0.8649
31.5579 19.7252 2.5356 0.8614
31.6818 20.0742 2.5554 0.8604
31.7392 20.3847 2.5700 0.8596
31.5989 20.5696 2.5689 0.8597
31.5912 20.8418 2.5786 0.8592
31.5835 21.1161 2.5885 0.8587
31.5758 21.3925 2.5986 0.8582
31.5681 21.6711 2.6088 0.8577
31.5603 21.9520 2.6193 0.8572
31.5524 22.2352 2.6299 0.8566
31.5445 22.5206 2.6407 0.8561
31.5419 22.8123 2.6522 0.8555
19.2076 14.4377 1.6374 0.9082
10.3117 35.6267 2.5270 0.8618
-4.3071 69.3896 4.7367 0.7567
-8.4417 68.0778 4.6739 0.7595
-0.4456 2.3846 0.1653 0.9903
-0.4588 2.3743 0.1648 0.9904
-0.4877 2.3674 0.1647 0.9904
-0.5034 2.3700 0.1651 0.9903
-0.5207 2.3792 0.1659 0.9903
-0.5920 2.4851 0.1740 0.9898
-0.5923 2.3574 0.1656 0.9903
-0.5924 2.2982 0.1617 0.9905
-0.6055 2.2908 0.1614 0.9905
-0.6206 2.2909 0.1617 0.9905
-0.6357 2.2910 0.1620 0.9905
-0.6510 2.2911 0.1623 0.9905
-0.6662 2.2912 0.1626 0.9905
-0.6815 2.2913 0.1629 0.9905
-0.6969 2.2914 0.1632 0.9904
-0.7123 2.2916 0.1635 0.9904
-0.7268 2.2885 0.1636 0.9904
-0.7418 2.2869 0.1638 0.9904
-0.7568 2.2854 0.1640 0.9904
-0.7719 2.2839 0.1643 0.9904
-0.7870 2.2824 0.1645 0.9904
-0.8022 2.2809 0.1647 0.9904
-0.8299 2.3140 0.1675 0.9902
-0.8461 2.3145 0.1679 0.9902
-0.8624 2.3149 0.1683 0.9901
-0.8953 2.3159 0.1692 0.9901
-0.9119 2.3163 0.1696 0.9901
-8.5734 2.3063 0.6049 0.9650
-8.5944 2.2555 0.6054 0.9650
-43.6221 2.3620 2.9764 0.8393
-41.3046 -34.8528 3.6821 0.8052
-41.1395 -35.1480 3.6866 0.8050
-39.8550 -35.3406 3.6292 0.8077
-39.5425 -35.4995 3.6205 0.8081
-39.2317 -35.6578 3.6120 0.8085
-38.9225 -35.8154 3.6037 0.8089
-38.7936 -36.1390 3.6122 0.8085
-37.7070 -35.5616 3.5313 0.8124
-38.0832 -36.8100 3.6086 0.8087
-37.7382 -37.3835 3.6191 0.8082
-37.7025 -37.8095 3.6379 0.8073
-37.0761 -37.6406 3.5997 0.8091
-36.5288 -37.5431 3.5688 0.8106
-35.9910 -37.4476 3.5387 0.8120
-35.8854 -37.7994 3.5511 0.8114
-37.4394 -49.9915 4.2553 0.7785
-37.2883 -50.4320 4.2732 0.7777
-36.9527 -50.6252 4.2703 0.7778
-36.4793 -50.6262 4.2514 0.7787
-35.5448 -50.6283 4.2146 0.7803
-35.0835 -50.6293 4.1967 0.7812
-34.6262 -50.6303 4.1791 0.7820
-34.1726 -50.6313 4.1618 0.7828
-33.7228 -50.6322 4.1448 0.7836
-33.2766 -50.6332 4.1280 0.7843
-32.8340 -50.6342 4.1116 0.7851
-32.3949 -50.6351 4.0955 0.7858
-31.7627 -50.3247 4.0545 0.7877
-31.7642 -51.0183 4.0946 0.7859
-31.7657 -51.7258 4.1357 0.7840
-31.7673 -52.4476 4.1777 0.7820
-31.9125 -53.4244 4.2398 0.7792
-31.5635 -53.5847 4.2371 0.7793
-31.1095 -53.5630 4.2202 0.7801
-30.6592 -53.5417 4.2036 0.7809
-30.2125 -53.5208 4.1873 0.7816
-29.7694 -53.5003 4.1714 0.7823
-29.9567 -54.6234 4.2445 0.7790
-29.5319 -54.6416 4.2318 0.7796
-17.6675 -33.1746 2.5608 0.8601
-17.4342 -33.2264 2.5565 0.8603
-17.0641 -33.0121 2.5319 0.8616
-16.9399 -33.2707 2.5437 0.8610
-16.4688 -32.8426 2.5032 0.8630
-16.4604 -33.3349 2.5330 0.8615
-16.2789 -33.4834 2.5366 0.8613
-16.0500 -33.5345 2.5330 0.8615
-15.8217 -33.5854 2.5294 0.8617
-17.0241 -36.7207 2.7576 0.8502
-16.4597 -36.6766 2.7389 0.8511
-15.9782 -36.1969 2.6957 0.8533
-15.5117 -35.7320 2.6540 0.8554
-25.9703 -60.8439 4.5072 0.7670
-25.6799 -61.2014 4.5219 0.7664
-25.2206 -61.1560 4.5071 0.7670
-16.4956 -40.7062 2.9924 0.8385
-16.2145 -40.7290 2.9868 0.8388
-15.9345 -40.7519 2.9812 0.8391
-15.5211 -40.4244 2.9502 0.8406
-13.6014 -36.7671 2.6709 0.8546
-14.7488 -40.6337 2.9452 0.8409
-14.4920 -40.7032 2.9437 0.8409
-14.2353 -40.7727 2.9424 0.8410
-13.4906 -39.4154 2.8384 0.8462
-13.1900 -39.3233 2.8259 0.8468
-12.8920 -39.2319 2.8136 0.8474
-12.2889 -39.0050 2.7862 0.8488
-11.9899 -38.8869 2.7725 0.8495
-11.6254 -39.4172 2.7999 0.8481
-11.3596 -39.4057 2.7941 0.8484
-11.0949 -39.3943 2.7884 0.8487
-10.5687 -39.3717 2.7774 0.8492
-10.7564 -41.0764 2.8930 0.8435
-15.2541 -59.7463 4.2012 0.7810
-14.8731 -59.7827 4.1973 0.7811
-16.0445 -66.2236 4.6425 0.7609
-15.0076 -63.6484 4.4554 0.7694
-15.4537 -67.3892 4.7105 0.7579
-14.6783 -65.8611 4.5973 0.7630
-13.3954 -61.8917 4.3144 0.7758
-12.9868 -61.8372 4.3050 0.7762
-12.4478 -61.1338 4.2506 0.7787
-12.1749 -61.7290 4.2867 0.7770
-11.7714 -61.6752 4.2779 0.7774
-11.3696 -61.6216 4.2692 0.7778
-11.2131 -62.9354 4.3554 0.7739
-10.9759 -63.8720 4.4155 0.7712
-10.3748 -62.6765 4.3284 0.7751
-9.9038 -62.1988 4.2911 0.7768
-9.4138 -64.1858 4.4199 0.7710
-3.5974 -67.1057 4.5786 0.7638
-2.9199 -61.5311 4.1969 0.7812
-2.5426 -61.5570 4.1976 0.7811
-2.1011 -59.7619 4.0742 0.7868
-1.7392 -59.9447 4.0859 0.7863
-1.3733 -60.0460 4.0921 0.7860
-1.0082 -60.2584 4.1061 0.7853
-0.6318 -59.6515 4.0644 0.7873
-0.2702 -60.6847 4.1346 0.7840
0.1026 -60.8719 4.1473 0.7834
0.4782 -61.1251 4.1647 0.7826
0.8498 -60.8650 4.1472 0.7834
1.6053 -61.1699 4.1690 0.7824
2.0602 -63.6133 4.3364 0.7748
2.5397 -65.9131 4.4941 0.7676
2.9382 -65.7606 4.4849 0.7680
3.2365 -63.6693 4.3435 0.7745
3.8996 -61.7522 4.2157 0.7803
4.2875 -61.8568 4.2245 0.7799
4.6421 -61.4985 4.2019 0.7809
5.0430 -61.7563 4.2216 0.7800
5.4204 -61.7061 4.2203 0.7801
5.7976 -61.6560 4.2193 0.7801
6.4122 -63.9764 4.3807 0.7728
6.6881 -62.8397 4.3056 0.7762
7.0383 -62.4836 4.2840 0.7772
7.3851 -62.1310 4.2629 0.7781
27.0391 -69.7200 5.0949 0.7410
25.4553 -59.0846 4.3832 0.7726
29.8805 -59.0906 4.5114 0.7668
30.2515 -58.9234 4.5127 0.7668
32.8311 -62.9929 4.8398 0.7522
29.0821 -51.1148 4.0067 0.7900
29.4470 -51.0250 4.0138 0.7896
39.6095 -59.0383 4.8438 0.7520
19.1267 -28.1336 2.3178 0.8725
29.7022 -43.1176 3.5672 0.8107
29.8913 -42.8271 3.5583 0.8111
30.4440 -43.0535 3.5926 0.8094
31.0103 -43.2883 3.6280 0.8078
30.7743 -42.4068 3.5699 0.8105
29.6842 -40.3807 3.4146 0.8180
-39.7484 -52.8375 3.6838 0.7673
-37.5479 -50.5553 3.5085 0.7770
-37.1196 -50.6249 3.4976 0.7776
-36.5744 -50.5288 3.4753 0.7789
-36.1657 -50.6154 3.4660 0.7794
-35.6670 -50.5708 3.4479 0.7804
-35.2133 -50.5839 3.4340 0.7812
-34.7780 -50.6184 3.4217 0.7819
-34.3058 -50.5937 3.4060 0.7828
-33.8521 -50.5903 3.3915 0.7836
-33.4249 -50.6214 3.3798 0.7843
-32.9445 -50.5662 3.3626 0.7852
-32.5483 -50.6349 3.3537 0.7857
-32.1114 -50.6358 3.3407 0.7865
-32.0147 -51.1752 3.3632 0.7852
-32.0163 -51.8833 3.3968 0.7833
-31.9571 -52.5059 3.4246 0.7817
-31.5066 -52.4883 3.4108 0.7825
-31.0596 -52.4709 3.3972 0.7833
-30.6164 -52.4540 3.3839 0.7840
-30.1767 -52.4373 3.3708 0.7848
-29.7404 -52.4209 3.3580 0.7855
-30.0753 -53.7777 3.4330 0.7813
-30.0770 -54.5642 3.4714 0.7791
-30.0297 -55.2783 3.5050 0.7772
-18.0684 -34.7714 2.1833 0.8547
-16.4268 -34.6762 2.1378 0.8575
-27.5319 -60.0119 3.6787 0.7676
-27.2949 -60.4721 3.6965 0.7666
-26.8897 -60.5629 3.6919 0.7668
-15.6993 -35.9523 2.1858 0.8546
-26.2190 -61.0627 3.7025 0.7663
-25.5858 -60.6114 3.6656 0.7683
-25.4339 -61.2990 3.6976 0.7665
-27.1337 -66.5468 4.0040 0.7498
-25.8562 -65.7097 3.9343 0.7536
-15.6261 -40.4379 2.4154 0.8406
-15.3503 -40.4611 2.4111 0.8408
-13.6682 -36.7052 2.1822 0.8548
-13.4698 -36.8627 2.1867 0.8545
-14.6063 -40.7470 2.4117 0.8408
-14.3491 -40.8166 2.4106 0.8409
-13.6233 -39.5256 2.3293 0.8458
-13.3210 -39.4327 2.3190 0.8464
-13.0214 -39.3405 2.3088 0.8470
-12.7244 -39.2492 2.2988 0.8476
-12.4221 -39.1338 2.2876 0.8483
-12.1212 -39.0146 2.2762 0.8490
-11.8232 -38.8965 2.2650 0.8497
-17.9811 -60.4870 3.5158 0.7766
-11.1257 -39.1805 2.2693 0.8494
-11.1942 -40.3629 2.3337 0.8455
-16.9060 -62.4442 3.6044 0.7717
-17.9417 -67.9195 3.9140 0.7547
-16.9174 -65.6718 3.7784 0.7621
-16.5543 -65.9348 3.7876 0.7616
-16.1893 -66.1991 3.7970 0.7611
-15.1293 -63.5523 3.6398 0.7697
-15.4539 -66.7316 3.8164 0.7600
-14.8653 -66.0311 3.7710 0.7625
-14.4084 -65.8866 3.7577 0.7632
-13.1530 -61.9661 3.5294 0.7759
-12.7194 -61.7877 3.5147 0.7767
-12.3138 -61.7337 3.5073 0.7771
-11.9098 -61.6799 3.5000 0.7775
-11.5076 -61.6263 3.4929 0.7779
-11.1069 -61.5729 3.4859 0.7783
-3.0527 -61.5337 3.4326 0.7813
-2.6753 -61.5596 3.4331 0.7813
-2.2630 -60.6519 3.3816 0.7842
-1.8764 -60.2091 3.3562 0.7856
-1.4944 -59.7235 3.3286 0.7871
-1.1400 -60.3785 3.3646 0.7851
-0.7704 -60.4635 3.3690 0.7849
-0.3979 -60.2650 3.3578 0.7855
-0.0277 -59.6578 3.3239 0.7874
0.7407 -62.7067 3.4940 0.7778
1.1922 -66.4124 3.7008 0.7664
1.9195 -63.4866 3.5388 0.7753
2.4034 -66.0652 3.6833 0.7673
2.8041 -65.9365 3.6770 0.7677
3.2019 -65.7779 3.6692 0.7681
3.5981 -65.6198 3.6615 0.7685
3.9926 -65.4625 3.6541 0.7689
4.2674 -63.5466 3.5485 0.7748
4.5321 -61.8107 3.4531 0.7801
4.9097 -61.7605 3.4519 0.7802
5.2871 -61.7103 3.4508 0.7803
5.6642 -61.6601 3.4499 0.7803
26.8761 -69.7440 4.1644 0.7412
25.2975 -59.0677 3.5801 0.7730
27.5591 -59.2548 3.6410 0.7697
27.4060 -57.9921 3.5737 0.7734
27.2804 -56.8208 3.5118 0.7768
27.2268 -55.8284 3.4607 0.7797
27.4231 -55.3655 3.4424 0.7807
27.5489 -54.7718 3.4159 0.7822
27.6730 -54.1874 3.3900 0.7837
28.1993 -53.5835 3.3736 0.7846
28.4741 -53.3093 3.3673 0.7850
28.7483 -53.0366 3.3612 0.7853
28.7971 -52.3569 3.3292 0.7871
28.9906 -51.2098 3.2787 0.7900
29.2238 -50.8906 3.2697 0.7905
29.2905 -50.2895 3.2425 0.7920
29.3432 -48.9871 3.1815 0.7955
29.2657 -48.1844 3.1410 0.7978
29.1935 -47.4072 3.1020 0.8001
29.0820 -46.5832 3.0597 0.8025
28.9609 -45.7616 3.0173 0.8050
28.8083 -44.9080 2.9727 0.8076
28.6437 -44.0541 2.9277 0.8102
28.5624 -43.3447 2.8922 0.8122
28.5365 -42.7321 2.8629 0.8139
19.0670 -28.1759 1.8955 0.8726
28.6147 -41.7308 2.8192 0.8165
28.5395 -40.5448 2.7625 0.8198
28.4830 -39.9415 2.7333 0.8216
27.8612 -38.5665 2.6508 0.8265
27.5571 -37.6565 2.5999 0.8295
27.4539 -37.0364 2.5686 0.8314
27.3771 -36.4627 2.5404 0.8330
27.3021 -35.9017 2.5130 0.8347
27.0618 -35.1360 2.4710 0.8372
26.8102 -34.3709 2.4287 0.8398
25.6450 -32.0578 2.2873 0.8483
25.4893 -31.4652 2.2562 0.8502
25.4493 -31.0245 2.2357 0.8515
25.3886 -30.5660 2.2139 0.8528
25.3292 -30.1164 2.1925 0.8541
25.2709 -29.6754 2.1717 0.8554
25.2342 -29.2665 2.1530 0.8566
25.2181 -28.8874 2.1365 0.8576
25.2111 -28.5240 2.1210 0.8585
8.0409 -8.9858 0.6718 0.9528
25.1973 -27.8128 2.0910 0.8604
25.1906 -27.4647 2.0764 0.8613
25.2016 -27.1404 2.0635 0.8621
25.2368 -26.8459 2.0529 0.8628
25.3042 -26.5887 2.0451 0.8633
25.3712 -26.3335 2.0374 0.8637
25.5038 -25.8289 2.0224 0.8647
25.5694 -25.5794 2.0151 0.8651
25.6142 -25.3116 2.0064 0.8657
25.6565 -25.0439 1.9976 0.8662
25.6983 -24.7786 1.9890 0.8667
25.7713 -24.5455 1.9829 0.8671
25.9446 -24.1102 1.9733 0.8677
26.0308 -23.8941 1.9687 0.8680
26.1021 -23.6661 1.9631 0.8684
26.1496 -23.4183 1.9558 0.8688
26.1431 -23.1249 1.9447 0.8695
26.1297 -22.8287 1.9332 0.8702
26.1167 -22.5362 1.9220 0.8709
26.1040 -22.2471 1.9109 0.8716
26.0915 -21.9614 1.9001 0.8723
26.1197 -21.4429 1.8829 0.8734
26.1577 -21.2067 1.8762 0.8738
26.1979 -20.9742 1.8698 0.8742
26.2381 -20.7433 1.8635 0.8746
26.2780 -20.5140 1.8574 0.8750
26.3178 -20.2863 1.8514 0.8754
26.3574 -20.0602 1.8455 0.8757
26.3931 -19.8327 1.8394 0.8761
26.4264 -19.6050 1.8333 0.8765
26.4595 -19.3790 1.8273 0.8769
26.3675 -19.0641 1.8129 0.8778
26.2396 -18.7274 1.7961 0.8788
26.1141 -18.3970 1.7798 0.8799
25.9912 -18.0726 1.7638 0.8809
25.8704 -17.7541 1.7482 0.8819
25.6515 -16.6927 1.7052 0.8846
25.6254 -16.4527 1.6967 0.8851
25.5996 -16.2151 1.6884 0.8857
25.5740 -15.9798 1.6802 0.8862
25.5488 -15.7468 1.6721 0.8867
25.5238 -15.5160 1.6642 0.8872
25.4992 -15.2875 1.6565 0.8877
25.4972 -15.0743 1.6503 0.8881
25.4849 -14.8567 1.6436 0.8885
25.4685 -14.6384 1.6367 0.8890
25.4522 -14.4220 1.6299 0.8894
25.4362 -14.2073 1.6233 0.8898
25.4203 -13.9945 1.6168 0.8903
25.4046 -13.7833 1.6103 0.8907
25.3890 -13.5738 1.6040 0.8911
25.3736 -13.3659 1.5979 0.8915
25.3672 -13.1643 1.5923 0.8918
25.3791 -12.9733 1.5881 0.8921
25.4021 -12.7891 1.5846 0.8923
25.4370 -12.6116 1.5819 0.8925
25.4719 -12.4346 1.5793 0.8927
25.5067 -12.2583 1.5767 0.8928
25.5414 -12.0826 1.5743 0.8930
25.5760 -11.9074 1.5719 0.8931
25.6105 -11.7327 1.5695 0.8933
25.6450 -11.5586 1.5673 0.8934
25.6794 -11.3850 1.5651 0.8936
25.7137 -11.2119 1.5629 0.8937
25.7613 -11.0449 1.5617 0.8938
25.8282 -10.8864 1.5616 0.8938
25.8951 -10.7280 1.5617 0.8938
25.9622 -10.5695 1.5618 0.8938
26.0964 -10.2525 1.5622 0.8938
26.1637 -10.0940 1.5625 0.8937
26.2309 -9.9354 1.5628 0.8937
26.2983 -9.7768 1.5632 0.8937
26.3299 -9.6050 1.5616 0.8938
26.3490 -9.4291 1.5592 0.8939
26.3682 -9.2538 1.5570 0.8941
26.3850 -9.0782 1.5546 0.8942
26.3994 -8.9023 1.5522 0.8944
26.4137 -8.7270 1.5499 0.8945
26.4281 -8.5521 1.5476 0.8947
26.4424 -8.3778 1.5454 0.8948
26.4568 -8.2040 1.5433 0.8950
26.4855 -7.8579 1.5392 0.8952
26.5109 -7.5126 1.5352 0.8955
26.5236 -7.3406 1.5333 0.8956
26.5364 -7.1691 1.5315 0.8957
26.5361 -6.9945 1.5290 0.8959
26.5323 -6.8196 1.5263 0.8961
26.5287 -6.6454 1.5237 0.8962
26.5250 -6.4717 1.5212 0.8964
26.5214 -6.2986 1.5188 0.8965
26.5179 -6.1261 1.5164 0.8967
26.5145 -5.9541 1.5141 0.8968
26.5166 -5.7838 1.5121 0.8970
26.5254 -5.6154 1.5106 0.8971
26.5342 -5.4473 1.5092 0.8972
26.5431 -5.2796 1.5078 0.8973
26.5520 -5.1121 1.5065 0.8973
26.5547 -4.9438 1.5049 0.8974
26.5570 -4.7758 1.5034 0.8975
26.5593 -4.6081 1.5019 0.8976
26.5617 -4.4407 1.5004 0.8977
26.5641 -4.2737 1.4991 0.8978
26.5666 -4.1070 1.4978 0.8979
26.5691 -3.9405 1.4965 0.8980
26.5762 -3.7750 1.4956 0.8980
26.5857 -3.6100 1.4948 0.8981
26.5953 -3.4452 1.4942 0.8981
26.6050 -3.2806 1.4936 0.8982
26.6147 -3.1160 1.4930 0.8982
26.6328 -2.9526 1.4930 0.8982
26.6545 -2.7895 1.4932 0.8982
26.6761 -2.6263 1.4935 0.8982
26.6978 -2.4631 1.4938 0.8982
26.7197 -2.2998 1.4942 0.8981
26.7415 -2.1364 1.4947 0.8981
26.7639 -1.9729 1.4952 0.8981
26.8105 -1.6457 1.4966 0.8980
26.8339 -1.4819 1.4974 0.8979
26.8574 -1.3179 1.4982 0.8979
26.8810 -1.1537 1.4991 0.8978
26.9088 -0.9895 1.5003 0.8977
26.9469 -0.8253 1.5021 0.8976
26.9851 -0.6607 1.5039 0.8975
27.0234 -0.4957 1.5059 0.8974
27.0619 -0.3302 1.5079 0.8972
27.0818 -0.1642 1.5089 0.8972
27.0988 0.0020 1.5098 0.8971
27.1159 0.1684 1.5108 0.8971
27.1330 0.3351 1.5119 0.8970
27.1503 0.5020 1.5130 0.8969
27.1676 0.6692 1.5141 0.8968
27.1849 0.8366 1.5154 0.8968
27.2013 1.0042 1.5166 0.8967
27.2010 1.1714 1.5169 0.8967
27.2004 1.5062 1.5178 0.8966
27.1942 1.6733 1.5180 0.8966
27.1810 1.8400 1.5179 0.8966
27.1679 2.0067 1.5178 0.8966
27.1420 2.3401 1.5179 0.8966
27.1290 2.5069 1.5180 0.8966
27.1033 2.8405 1.5184 0.8966
27.0904 3.0073 1.5186 0.8966
27.0615 3.1724 1.5181 0.8966
27.0304 3.3371 1.5175 0.8966
26.9994 3.5016 1.5169 0.8967
26.9684 3.6661 1.5164 0.8967
26.8933 4.1615 1.5162 0.8967
26.8547 4.4938 1.5170 0.8967
26.8356 4.6601 1.5175 0.8966
26.8164 4.8265 1.5181 0.8966
26.7972 4.9931 1.5187 0.8965
26.7582 5.1559 1.5183 0.8966
26.7058 5.3160 1.5171 0.8967
26.6013 5.6356 1.5150 0.8968
26.5492 5.7951 1.5140 0.8969
26.4973 5.9543 1.5131 0.8969
26.4454 6.1134 1.5123 0.8970
26.3420 6.4312 1.5108 0.8971
26.2915 6.5901 1.5102 0.8971
26.2562 6.7528 1.5105 0.8971
26.2209 6.9156 1.5109 0.8971
26.1856 7.0785 1.5113 0.8970
26.1488 7.2410 1.5117 0.8970
26.1119 7.4037 1.5122 0.8970
26.0751 7.5665 1.5127 0.8969
26.0014 7.8924 1.5140 0.8969
25.9646 8.0556 1.5147 0.8968
25.8543 8.5464 1.5172 0.8966
25.8175 8.7103 1.5181 0.8966
25.7822 8.8751 1.5192 0.8965
25.7606 9.0449 1.5212 0.8964
25.7584 9.2221 1.5244 0.8962
25.7768 9.4075 1.5288 0.8959
25.8044 9.5975 1.5339 0.8956
25.8409 9.7921 1.5397 0.8952
25.8777 9.9881 1.5455 0.8948
25.9149 10.1856 1.5514 0.8944
25.9524 10.3847 1.5574 0.8941
25.9903 10.5854 1.5636 0.8937
26.0286 10.7877 1.5698 0.8933
26.0537 10.9860 1.5754 0.8929
26.0738 11.1835 1.5807 0.8926
26.1877 11.4232 1.5918 0.8918
26.3033 11.6662 1.6032 0.8911
26.4206 11.9129 1.6148 0.8904
26.5397 12.1631 1.6266 0.8896
26.6346 12.4050 1.6370 0.8890
26.6548 12.6141 1.6430 0.8886
26.6752 12.8248 1.6491 0.8882
26.6958 13.0370 1.6553 0.8878
26.7431 13.2640 1.6632 0.8873
26.8575 13.5268 1.6755 0.8865
26.9737 13.7935 1.6880 0.8857
27.1428 14.3030 1.7094 0.8843
27.2835 14.8079 1.7296 0.8831
27.3552 15.0649 1.7400 0.8824
27.4569 15.3413 1.7524 0.8816
27.6256 15.6589 1.7693 0.8805
27.8255 15.9986 1.7883 0.8793
28.6504 16.7077 1.8479 0.8756
28.7103 16.9796 1.8584 0.8749
29.3525 17.8494 1.9140 0.8714
29.5922 18.2449 1.9369 0.8700
29.8377 18.6500 1.9605 0.8685
31.5049 20.2341 2.0862 0.8607
31.5155 20.5153 2.0952 0.8601
31.4788 20.7676 2.1012 0.8598
31.4707 21.0406 2.1092 0.8593
31.4626 21.3158 2.1174 0.8588
31.4544 21.5931 2.1257 0.8583
31.4462 21.8726 2.1342 0.8577
31.4379 22.1544 2.1428 0.8572
31.4107 22.4251 2.1503 0.8567
31.3686 22.6870 2.1569 0.8563
31.3417 22.9618 2.1647 0.8559
31.4553 23.3431 2.1824 0.8548
19.2069 14.4372 1.3387 0.9082
31.6884 24.1249 2.2190 0.8525
31.8012 24.5206 2.2374 0.8514
19.3454 57.4699 3.3785 0.7843
10.3113 35.6255 2.0668 0.8619
-8.4408 68.0700 3.8217 0.7597
-0.4338 2.4031 0.1361 0.9903
-0.4456 2.3846 0.1352 0.9903
-0.4588 2.3743 0.1347 0.9904
-0.4729 2.3689 0.1346 0.9904
-0.4877 2.3674 0.1347 0.9904
-0.5034 2.3700 0.1350 0.9903
-0.5207 2.3792 0.1357 0.9903
-0.5920 2.4850 0.1423 0.9898
-0.5921 2.4196 0.1388 0.9901
-0.5922 2.3574 0.1354 0.9903
-0.5924 2.2981 0.1322 0.9905
-0.6055 2.2908 0.1320 0.9906
-0.6206 2.2909 0.1322 0.9905
-0.6358 2.2910 0.1325 0.9905
-0.6510 2.2911 0.1327 0.9905
-0.6662 2.2912 0.1329 0.9905
-0.6815 2.2913 0.1332 0.9905
-0.6969 2.2914 0.1334 0.9905
-0.7123 2.2916 0.1337 0.9904
-0.7268 2.2885 0.1338 0.9904
-0.7418 2.2869 0.1339 0.9904
-0.7568 2.2854 0.1341 0.9904
-0.7719 2.2839 0.1343 0.9904
-0.8022 2.2809 0.1347 0.9904
-0.8260 2.3031 0.1363 0.9902
-0.8413 2.3012 0.1365 0.9902
-0.8572 2.3008 0.1368 0.9902
-0.8733 2.3010 0.1371 0.9902
-26.8925 69.5635 4.1553 0.7417
-8.5728 2.3062 0.4946 0.9651
-8.5938 2.2553 0.4950 0.9650
-43.6206 2.3619 2.4339 0.8394
-68.0796 -23.5171 4.0130 0.7493
-66.1051 -23.2902 3.9050 0.7552
-64.2356 -23.0757 3.8029 0.7608
-62.4626 -22.8726 3.7061 0.7661
-60.7784 -22.6799 3.6144 0.7711
-59.1768 -22.4970 3.5273 0.7760
-59.3179 -22.9683 3.5440 0.7750
-59.3188 -23.3884 3.5526 0.7746
-59.3197 -23.8105 3.5613 0.7741
-59.3207 -24.2347 3.5703 0.7736
-59.3216 -24.6610 3.5794 0.7731
-58.9540 -24.9337 3.5663 0.7738
-41.1978 -34.7627 3.0033 0.8058
-41.1172 -35.1289 3.0131 0.8052
-41.0360 -35.4977 3.0231 0.8046
-40.9545 -35.8689 3.0332 0.8040
-40.9201 -36.2851 3.0471 0.8032
-41.2230 -37.0082 3.0865 0.8010
-40.0921 -36.4398 3.0185 0.8049
-39.7582 -36.5844 3.0103 0.8054
-38.8735 -36.2135 2.9600 0.8083
-38.7020 -36.5000 2.9640 0.8081
-38.3114 -36.5785 2.9512 0.8088
-37.2361 -35.9913 2.8853 0.8126
-37.1535 -36.8043 2.9137 0.8110
-36.8577 -36.9623 2.9083 0.8113
-37.6695 -38.2430 2.9908 0.8065
-37.3862 -38.4243 2.9870 0.8067
-37.0362 -38.5350 2.9778 0.8073
-36.5603 -38.5103 2.9585 0.8084
-39.0366 -41.6274 3.1796 0.7956
-38.8661 -41.9588 3.1866 0.7952
-40.0912 -52.8532 3.6961 0.7666
-39.5645 -52.8292 3.6774 0.7677
-37.4304 -50.6242 3.5078 0.7771
-36.9528 -50.6253 3.4921 0.7779
-36.4710 -50.6147 3.4759 0.7789
-35.5448 -50.6283 3.4466 0.7805
-34.6183 -50.6188 3.4167 0.7822
-34.1727 -50.6313 3.4034 0.7829
-33.7151 -50.6207 3.3887 0.7838
-33.2690 -50.6217 3.3750 0.7845
-32.8340 -50.6342 3.3623 0.7852
-32.0137 -50.7225 3.3419 0.7864
-32.0153 -51.4216 3.3749 0.7845
-32.0168 -52.1346 3.4087 0.7826
-31.7989 -52.4997 3.4198 0.7820
-31.3496 -52.4822 3.4060 0.7828
-30.9040 -52.4650 3.3925 0.7835
-30.4620 -52.4481 3.3793 0.7843
-29.5885 -52.4153 3.3535 0.7857
-30.0759 -54.0512 3.4463 0.7805
-30.0777 -54.8439 3.4850 0.7783
-29.9138 -55.3483 3.5053 0.7772
-29.6118 -55.6026 3.5099 0.7770
-18.2387 -34.7596 2.1871 0.8545
-16.4203 -34.3082 2.1192 0.8587
-16.1802 -34.3462 2.1153 0.8589
-27.9393 -60.2647 3.7010 0.7663
-27.4518 -60.1785 3.6853 0.7672
-27.0005 -60.1644 3.6742 0.7678
-16.0048 -36.2571 2.2081 0.8532
-15.5371 -35.7906 2.1739 0.8553
-25.9958 -60.9035 3.6895 0.7670
-25.6399 -61.1059 3.6921 0.7668
-27.3529 -66.3266 3.9973 0.7502
-27.0152 -66.6657 4.0077 0.7496
-26.8928 -67.5519 4.0510 0.7473
-25.7293 -65.8017 3.9365 0.7535
-15.5294 -40.4460 2.4139 0.8407
-13.5998 -36.7629 2.1839 0.8547
-14.7735 -40.7017 2.4125 0.8407
-14.5162 -40.7713 2.4113 0.8408
-14.2591 -40.8409 2.4102 0.8409
-13.2158 -39.4003 2.3154 0.8466
-12.6192 -39.2118 2.2951 0.8479
-12.3163 -39.0919 2.2836 0.8486
-12.0165 -38.9731 2.2723 0.8493
-11.7195 -38.8554 2.2612 0.8499
-11.0336 -39.1767 2.2677 0.8495
-11.1306 -40.4712 2.3386 0.8452
-18.2596 -68.0231 3.9241 0.7542
-17.7710 -67.8639 3.9086 0.7550
-16.7904 -65.7638 3.7816 0.7619
-16.4267 -66.0272 3.7909 0.7614
-15.0064 -63.6433 3.6432 0.7695
-14.7052 -65.9817 3.7664 0.7628
-14.2461 -65.8222 3.7522 0.7635
-12.9838 -61.8230 3.5197 0.7764
-12.5771 -61.7688 3.5121 0.7768
-12.1721 -61.7148 3.5047 0.7772
-11.7687 -61.6611 3.4975 0.7776
-11.3671 -61.6076 3.4904 0.7780
-11.8597 -66.5649 3.7671 0.7627
-2.9205 -61.5428 3.4328 0.7813
-2.5002 -60.5301 3.3753 0.7845
-2.1149 -60.1543 3.3536 0.7857
-1.3718 -59.9791 3.3426 0.7864
-1.0107 -60.4082 3.3662 0.7850
-0.2674 -60.0509 3.3458 0.7862
0.1019 -60.4846 3.3699 0.7848
0.4890 -62.5146 3.4832 0.7784
0.8769 -62.8081 3.4997 0.7775
1.3371 -66.5172 3.7068 0.7660
1.7739 -67.5919 3.7672 0.7627
2.0599 -63.6050 3.5457 0.7750
2.5439 -66.0216 3.6812 0.7674
2.9436 -65.8809 3.6743 0.7678
3.3409 -65.7225 3.6665 0.7683
3.7364 -65.5646 3.6589 0.7687
3.9190 -62.0598 3.4646 0.7795
4.2866 -61.8434 3.4539 0.7801
4.6644 -61.7931 3.4526 0.7802
5.0419 -61.7429 3.4515 0.7802
5.4192 -61.6927 3.4505 0.7803
5.7963 -61.6426 3.4496 0.7803
27.0356 -69.7109 4.1658 0.7412
25.4494 -59.0711 3.5836 0.7728
27.6638 -60.1056 3.6865 0.7671
27.5047 -58.8071 3.6171 0.7710
27.3703 -57.5958 3.5529 0.7746
27.2328 -56.4105 3.4900 0.7781
27.3117 -55.6982 3.4563 0.7800
27.4673 -55.1566 3.4331 0.7813
27.5926 -54.5661 3.4068 0.7827
27.8170 -54.1815 3.3934 0.7835
28.0203 -53.7626 3.3778 0.7844
28.2956 -53.4873 3.3714 0.7847
28.5702 -53.2136 3.3651 0.7851
28.7915 -52.0814 3.3156 0.7879
28.9515 -51.6200 3.2975 0.7889
29.0784 -51.1083 3.2762 0.7901
29.2473 -50.6788 3.2601 0.7910
29.3137 -50.0813 3.2332 0.7926
29.3882 -49.5091 3.2078 0.7940
29.3158 -48.7036 3.1672 0.7963
29.2391 -47.9080 3.1271 0.7986
29.1626 -47.1297 3.0879 0.8009
29.0391 -46.2928 3.0447 0.8034
28.9072 -45.4602 3.0016 0.8059
28.7514 -44.6082 2.9569 0.8085
28.5865 -43.7601 2.9123 0.8111
28.5533 -43.1287 2.8818 0.8128
19.1259 -28.1325 1.8953 0.8726
28.6089 -41.5306 2.8098 0.8171
28.5665 -40.9290 2.7809 0.8188
28.4629 -39.7322 2.7231 0.8222
27.6740 -38.1344 2.6252 0.8280
27.5058 -37.4173 2.5874 0.8302
-39.3801 -51.6846 2.8146 0.7709
-38.8676 -51.6668 2.8006 0.7719
-37.5476 -50.5549 2.7278 0.7771
-36.5740 -50.5283 2.7019 0.7790
-36.1657 -50.6155 2.6947 0.7795
-35.2129 -50.5834 2.6698 0.7813
-34.7781 -50.6185 2.6603 0.7820
-34.3054 -50.5932 2.6480 0.7829
-33.8517 -50.5898 2.6368 0.7837
-33.4249 -50.6214 2.6276 0.7844
-32.9442 -50.5656 2.6142 0.7853
-32.5483 -50.6349 2.6074 0.7858
-32.1114 -50.6358 2.5972 0.7866
-31.7403 -51.4359 2.6181 0.7851
-30.4239 -51.3969 2.5871 0.7873
-29.9921 -51.3845 2.5772 0.7880
