ply
format ascii 1.0
element vertex 1592
property float32 x
property float32 y
property float32 z
property float32 I
end_header
2.6904 -6.8009 -2.2867 0.9698
2.7321 -6.7842 -2.2867 0.9698
2.7737 -6.7673 -2.2867 0.9698
2.8565 -6.7328 -2.2867 0.9698
2.8978 -6.7151 -2.2867 0.9698
2.9389 -6.6972 -2.2867 0.9698
3.0618 -6.6420 -2.2867 0.9698
3.1025 -6.6230 -2.2867 0.9698
3.1431 -6.6039 -2.2867 0.9698
3.1836 -6.5845 -2.2867 0.9698
3.2239 -6.5648 -2.2867 0.9698
3.2641 -6.5449 -2.2867 0.9698
3.3042 -6.5247 -2.2867 0.9698
3.3442 -6.5043 -2.2867 0.9698
3.3841 -6.4837 -2.2867 0.9698
3.4238 -6.4628 -2.2867 0.9698
3.4634 -6.4417 -2.2867 0.9698
3.5029 -6.4203 -2.2867 0.9698
3.5814 -6.3768 -2.2867 0.9698
3.6595 -6.3323 -2.2867 0.9698
3.6982 -6.3098 -2.2867 0.9698
3.7369 -6.2870 -2.2867 0.9698
3.7754 -6.2639 -2.2867 0.9698
3.8138 -6.2406 -2.2867 0.9698
3.8520 -6.2171 -2.2867 0.9698
3.8901 -6.1933 -2.2867 0.9698
3.9280 -6.1693 -2.2867 0.9698
3.9658 -6.1451 -2.2867 0.9698
4.0035 -6.1206 -2.2867 0.9698
4.0410 -6.0959 -2.2867 0.9698
4.0783 -6.0710 -2.2867 0.9698
4.1155 -6.0459 -2.2867 0.9698
4.1615 -6.0335 -2.2916 0.9697
4.1894 -5.9949 -2.2867 0.9698
4.2261 -5.9691 -2.2867 0.9698
4.2627 -5.9430 -2.2867 0.9698
4.2990 -5.9168 -2.2867 0.9698
4.3353 -5.8903 -2.2867 0.9698
4.3714 -5.8636 -2.2867 0.9698
4.4072 -5.8366 -2.2867 0.9698
4.4601 -5.8318 -2.2955 0.9697
4.5151 -5.8292 -2.3053 0.9696
4.5706 -5.8267 -2.3154 0.9694
4.6266 -5.8241 -2.3256 0.9693
4.6831 -5.8214 -2.3359 0.9692
4.8018 -5.8212 -2.3593 0.9689
4.8621 -5.8212 -2.3714 0.9687
4.9231 -5.8212 -2.3837 0.9686
4.9718 -5.8061 -2.3899 0.9685
5.0073 -5.7755 -2.3899 0.9685
5.0427 -5.7447 -2.3899 0.9685
5.0779 -5.7136 -2.3899 0.9685
5.1128 -5.6823 -2.3899 0.9685
5.1822 -5.6191 -2.3899 0.9685
5.2166 -5.5872 -2.3899 0.9685
5.2508 -5.5551 -2.3899 0.9685
5.2847 -5.5228 -2.3899 0.9685
5.3186 -5.4902 -2.3899 0.9685
5.3522 -5.4575 -2.3899 0.9685
5.4187 -5.3914 -2.3899 0.9685
5.4517 -5.3580 -2.3899 0.9685
5.4845 -5.3244 -2.3899 0.9685
5.5171 -5.2907 -2.3899 0.9685
5.5495 -5.2567 -2.3899 0.9685
5.5816 -5.2226 -2.3899 0.9685
5.6136 -5.1882 -2.3899 0.9685
5.6453 -5.1537 -2.3899 0.9685
5.6768 -5.1189 -2.3899 0.9685
5.7081 -5.0840 -2.3899 0.9685
5.7392 -5.0488 -2.3899 0.9685
5.7701 -5.0135 -2.3899 0.9685
5.8008 -4.9780 -2.3899 0.9685
5.8312 -4.9423 -2.3899 0.9685
5.8614 -4.9064 -2.3899 0.9685
5.8914 -4.8704 -2.3899 0.9685
5.9212 -4.8341 -2.3899 0.9685
5.9508 -4.7977 -2.3899 0.9685
5.9801 -4.7611 -2.3899 0.9685
6.0092 -4.7243 -2.3899 0.9685
6.0381 -4.6873 -2.3899 0.9685
6.0668 -4.6501 -2.3899 0.9685
6.0952 -4.6128 -2.3899 0.9685
6.1234 -4.5753 -2.3899 0.9685
6.1513 -4.5377 -2.3899 0.9685
6.1791 -4.4998 -2.3899 0.9685
6.2066 -4.4618 -2.3899 0.9685
6.2339 -4.4236 -2.3899 0.9685
6.2609 -4.3853 -2.3899 0.9685
6.2877 -4.3468 -2.3899 0.9685
6.3143 -4.3081 -2.3899 0.9685
6.3406 -4.2693 -2.3899 0.9685
6.3667 -4.2303 -2.3899 0.9685
6.3925 -4.1911 -2.3899 0.9685
6.4181 -4.1518 -2.3899 0.9685
6.4435 -4.1123 -2.3899 0.9685
6.4686 -4.0727 -2.3899 0.9685
6.4935 -4.0329 -2.3899 0.9685
6.5425 -3.9529 -2.3899 0.9685
6.5666 -3.9127 -2.3899 0.9685
6.5905 -3.8723 -2.3899 0.9685
6.6142 -3.8318 -2.3899 0.9685
6.6376 -3.7911 -2.3899 0.9685
6.6607 -3.7503 -2.3899 0.9685
6.6836 -3.7093 -2.3899 0.9685
6.7062 -3.6683 -2.3899 0.9685
6.7286 -3.6270 -2.3899 0.9685
6.7508 -3.5857 -2.3899 0.9685
6.7726 -3.5442 -2.3899 0.9685
6.7943 -3.5025 -2.3899 0.9685
6.8156 -3.4608 -2.3899 0.9685
6.8576 -3.3768 -2.3899 0.9685
6.8782 -3.3347 -2.3899 0.9685
6.8985 -3.2924 -2.3899 0.9685
6.9186 -3.2500 -2.3899 0.9685
6.9579 -3.1648 -2.3899 0.9685
6.9773 -3.1221 -2.3899 0.9685
6.9963 -3.0792 -2.3899 0.9685
7.0151 -3.0362 -2.3899 0.9685
7.0336 -2.9931 -2.3899 0.9685
7.0518 -2.9498 -2.3899 0.9685
7.0698 -2.9065 -2.3899 0.9685
7.0875 -2.8631 -2.3899 0.9685
7.1221 -2.7758 -2.3899 0.9685
7.1390 -2.7321 -2.3899 0.9685
7.1556 -2.6882 -2.3899 0.9685
7.1720 -2.6442 -2.3899 0.9685
7.1881 -2.6002 -2.3899 0.9685
7.2039 -2.5560 -2.3899 0.9685
7.2195 -2.5117 -2.3899 0.9685
7.2498 -2.4229 -2.3899 0.9685
7.2645 -2.3784 -2.3899 0.9685
7.2790 -2.3338 -2.3899 0.9685
7.2931 -2.2890 -2.3899 0.9685
7.3070 -2.2442 -2.3899 0.9685
7.3207 -2.1993 -2.3899 0.9685
7.3340 -2.1544 -2.3899 0.9685
7.3471 -2.1093 -2.3899 0.9685
7.3599 -2.0642 -2.3899 0.9685
7.3725 -2.0190 -2.3899 0.9685
7.3847 -1.9737 -2.3899 0.9685
7.3967 -1.9283 -2.3899 0.9685
7.4084 -1.8829 -2.3899 0.9685
7.4310 -1.7918 -2.3899 0.9685
7.4418 -1.7462 -2.3899 0.9685
7.4524 -1.7004 -2.3899 0.9685
7.4627 -1.6547 -2.3899 0.9685
7.4727 -1.6088 -2.3899 0.9685
7.4824 -1.5629 -2.3899 0.9685
7.4919 -1.5170 -2.3899 0.9685
7.5099 -1.4249 -2.3899 0.9685
7.5186 -1.3788 -2.3899 0.9685
7.5269 -1.3326 -2.3899 0.9685
7.5349 -1.2864 -2.3899 0.9685
7.5427 -1.2401 -2.3899 0.9685
7.5501 -1.1938 -2.3899 0.9685
7.5573 -1.1474 -2.3899 0.9685
7.5642 -1.1010 -2.3899 0.9685
7.5708 -1.0546 -2.3899 0.9685
7.5772 -1.0081 -2.3899 0.9685
7.5832 -0.9616 -2.3899 0.9685
7.5890 -0.9150 -2.3899 0.9685
7.5944 -0.8684 -2.3899 0.9685
7.5996 -0.8218 -2.3899 0.9685
7.6045 -0.7751 -2.3899 0.9685
7.6092 -0.7284 -2.3899 0.9685
7.6135 -0.6817 -2.3899 0.9685
7.6175 -0.6350 -2.3899 0.9685
7.6212 -0.5882 -2.3899 0.9685
7.6247 -0.5414 -2.3899 0.9685
7.6279 -0.4946 -2.3899 0.9685
7.6308 -0.4478 -2.3899 0.9685
7.6334 -0.4009 -2.3899 0.9685
7.6357 -0.3541 -2.3899 0.9685
7.6378 -0.3072 -2.3899 0.9685
7.6395 -0.2603 -2.3899 0.9685
7.6410 -0.2134 -2.3899 0.9685
7.6421 -0.1665 -2.3899 0.9685
7.6430 -0.1196 -2.3899 0.9685
7.6436 -0.0727 -2.3899 0.9685
7.6439 -0.0258 -2.3899 0.9685
7.6439 0.0211 -2.3899 0.9685
7.6436 0.0680 -2.3899 0.9685
7.6431 0.1149 -2.3899 0.9685
7.6411 0.2087 -2.3899 0.9685
7.6397 0.2556 -2.3899 0.9685
7.6379 0.3025 -2.3899 0.9685
7.6359 0.3494 -2.3899 0.9685
7.6337 0.3963 -2.3899 0.9685
7.6311 0.4431 -2.3899 0.9685
7.6251 0.5367 -2.3899 0.9685
7.6216 0.5835 -2.3899 0.9685
7.6179 0.6303 -2.3899 0.9685
7.6139 0.6771 -2.3899 0.9685
7.6096 0.7238 -2.3899 0.9685
7.6050 0.7705 -2.3899 0.9685
7.6001 0.8171 -2.3899 0.9685
7.5950 0.8637 -2.3899 0.9685
7.5895 0.9104 -2.3899 0.9685
7.5838 0.9569 -2.3899 0.9685
7.5778 1.0034 -2.3899 0.9685
7.5715 1.0499 -2.3899 0.9685
7.5649 1.0964 -2.3899 0.9685
7.5580 1.1428 -2.3899 0.9685
7.5509 1.1892 -2.3899 0.9685
7.5434 1.2355 -2.3899 0.9685
7.5357 1.2818 -2.3899 0.9685
7.5277 1.3280 -2.3899 0.9685
7.5194 1.3742 -2.3899 0.9685
7.5020 1.4664 -2.3899 0.9685
7.4928 1.5124 -2.3899 0.9685
7.4834 1.5583 -2.3899 0.9685
7.4637 1.6501 -2.3899 0.9685
7.4534 1.6959 -2.3899 0.9685
7.4429 1.7416 -2.3899 0.9685
7.4321 1.7872 -2.3899 0.9685
7.4096 1.8783 -2.3899 0.9685
7.3979 1.9238 -2.3899 0.9685
7.3859 1.9691 -2.3899 0.9685
7.3737 2.0144 -2.3899 0.9685
7.3612 2.0597 -2.3899 0.9685
7.3485 2.1048 -2.3899 0.9685
7.3354 2.1499 -2.3899 0.9685
7.3221 2.1948 -2.3899 0.9685
7.2593 2.2247 -2.3739 0.9687
7.1091 2.2265 -2.3292 0.9693
6.9852 2.2348 -2.2930 0.9697
6.9525 2.2715 -2.2868 0.9698
6.9385 2.3142 -2.2868 0.9698
6.9241 2.3567 -2.2868 0.9698
6.9529 2.4142 -2.3012 0.9696
6.8947 2.4415 -2.2868 0.9698
6.8796 2.4838 -2.2868 0.9698
6.8486 2.5681 -2.2868 0.9698
6.8327 2.6100 -2.2868 0.9698
6.8165 2.6519 -2.2868 0.9698
6.8001 2.6937 -2.2868 0.9698
6.7834 2.7354 -2.2868 0.9698
6.7665 2.7770 -2.2868 0.9698
6.7494 2.8185 -2.2868 0.9698
6.7319 2.8598 -2.2868 0.9698
6.7143 2.9011 -2.2868 0.9698
6.6963 2.9422 -2.2868 0.9698
6.6781 2.9833 -2.2868 0.9698
6.6410 3.0650 -2.2868 0.9698
6.6221 3.1057 -2.2868 0.9698
6.6029 3.1463 -2.2868 0.9698
6.5834 3.1868 -2.2868 0.9698
6.5637 3.2271 -2.2868 0.9698
6.5438 3.2674 -2.2868 0.9698
6.5237 3.3075 -2.2868 0.9698
6.5032 3.3474 -2.2868 0.9698
6.4826 3.3873 -2.2868 0.9698
6.4617 3.4270 -2.2868 0.9698
6.4405 3.4666 -2.2868 0.9698
6.4191 3.5061 -2.2868 0.9698
6.3975 3.5454 -2.2868 0.9698
6.3756 3.5846 -2.2868 0.9698
6.3535 3.6237 -2.2868 0.9698
6.3311 3.6626 -2.2868 0.9698
6.2857 3.7400 -2.2868 0.9698
6.2626 3.7786 -2.2868 0.9698
6.2393 3.8169 -2.2868 0.9698
6.2157 3.8552 -2.2868 0.9698
6.1920 3.8932 -2.2868 0.9698
6.1679 3.9312 -2.2868 0.9698
6.1437 3.9689 -2.2868 0.9698
6.1192 4.0066 -2.2868 0.9698
6.0945 4.0440 -2.2868 0.9698
6.0696 4.0814 -2.2868 0.9698
6.0444 4.1186 -2.2868 0.9698
6.0190 4.1556 -2.2868 0.9698
5.9934 4.1925 -2.2868 0.9698
5.9676 4.2292 -2.2868 0.9698
5.9415 4.2657 -2.2868 0.9698
5.9152 4.3021 -2.2868 0.9698
5.8887 4.3383 -2.2868 0.9698
5.8619 4.3744 -2.2868 0.9698
5.8350 4.4103 -2.2868 0.9698
5.7804 4.4816 -2.2868 0.9698
5.7528 4.5170 -2.2868 0.9698
5.7250 4.5522 -2.2868 0.9698
5.6969 4.5872 -2.2868 0.9698
5.6687 4.6221 -2.2868 0.9698
5.6402 4.6568 -2.2868 0.9698
5.6115 4.6913 -2.2868 0.9698
5.5535 4.7599 -2.2868 0.9698
5.4946 4.8277 -2.2868 0.9698
5.4649 4.8613 -2.2868 0.9698
5.3439 4.9940 -2.2868 0.9698
5.3131 5.0267 -2.2868 0.9698
5.2822 5.0592 -2.2868 0.9698
5.2511 5.0916 -2.2868 0.9698
5.2197 5.1237 -2.2868 0.9698
5.1882 5.1556 -2.2868 0.9698
5.1564 5.1874 -2.2868 0.9698
5.1245 5.2189 -2.2868 0.9698
5.0924 5.2503 -2.2868 0.9698
5.0601 5.2814 -2.2868 0.9698
5.0275 5.3124 -2.2868 0.9698
4.9948 5.3431 -2.2868 0.9698
4.9619 5.3737 -2.2868 0.9698
4.9289 5.4041 -2.2868 0.9698
4.8956 5.4342 -2.2868 0.9698
4.8621 5.4642 -2.2868 0.9698
4.8285 5.4939 -2.2868 0.9698
4.7947 5.5234 -2.2868 0.9698
4.7607 5.5528 -2.2868 0.9698
4.7265 5.5819 -2.2868 0.9698
4.6922 5.6108 -2.2868 0.9698
4.6577 5.6395 -2.2868 0.9698
4.6230 5.6679 -2.2868 0.9698
4.5530 5.7243 -2.2868 0.9698
4.5179 5.7521 -2.2868 0.9698
4.4824 5.7797 -2.2868 0.9698
-7.3245 -0.0450 -2.3899 0.9697
-7.3240 -0.0899 -2.3899 0.9697
-7.3234 -0.1349 -2.3899 0.9697
-7.3224 -0.1798 -2.3899 0.9697
-7.3212 -0.2247 -2.3899 0.9697
-7.3196 -0.2697 -2.3899 0.9697
-7.3158 -0.3595 -2.3899 0.9697
-7.3134 -0.4044 -2.3899 0.9697
-7.3108 -0.4493 -2.3899 0.9697
-7.3079 -0.4941 -2.3899 0.9697
-7.3047 -0.5390 -2.3899 0.9697
-7.3013 -0.5838 -2.3899 0.9697
-7.2976 -0.6286 -2.3899 0.9697
-7.2936 -0.6734 -2.3899 0.9697
-7.2893 -0.7181 -2.3899 0.9697
-7.2847 -0.7629 -2.3899 0.9697
-7.2799 -0.8076 -2.3899 0.9697
-7.2749 -0.8522 -2.3899 0.9697
-7.2695 -0.8969 -2.3899 0.9697
-7.2638 -0.9415 -2.3899 0.9697
-7.2579 -0.9860 -2.3899 0.9697
-7.2517 -1.0306 -2.3899 0.9697
-7.2453 -1.0751 -2.3899 0.9697
-7.2385 -1.1195 -2.3899 0.9697
-7.2315 -1.1639 -2.3899 0.9697
-7.2242 -1.2083 -2.3899 0.9697
-7.2167 -1.2526 -2.3899 0.9697
-7.2089 -1.2969 -2.3899 0.9697
-7.2008 -1.3411 -2.3899 0.9697
-7.1924 -1.3853 -2.3899 0.9697
-7.1838 -1.4294 -2.3899 0.9697
-7.1749 -1.4734 -2.3899 0.9697
-7.1657 -1.5175 -2.3899 0.9697
-7.1562 -1.5614 -2.3899 0.9697
-7.1465 -1.6053 -2.3899 0.9697
-7.1365 -1.6491 -2.3899 0.9697
-7.1263 -1.6929 -2.3899 0.9697
-7.1158 -1.7366 -2.3899 0.9697
-7.1050 -1.7802 -2.3899 0.9697
-7.0939 -1.8238 -2.3899 0.9697
-7.0826 -1.8673 -2.3899 0.9697
-7.0710 -1.9108 -2.3899 0.9697
-7.0591 -1.9541 -2.3899 0.9697
-7.0470 -1.9974 -2.3899 0.9697
-7.0346 -2.0406 -2.3899 0.9697
-7.0219 -2.0838 -2.3899 0.9697
-7.0090 -2.1268 -2.3899 0.9697
-6.9958 -2.1698 -2.3899 0.9697
-6.9824 -2.2127 -2.3899 0.9697
-6.9687 -2.2555 -2.3899 0.9697
-6.9547 -2.2982 -2.3899 0.9697
-6.9404 -2.3409 -2.3899 0.9697
-6.9260 -2.3834 -2.3899 0.9697
-6.9112 -2.4259 -2.3899 0.9697
-6.8962 -2.4683 -2.3899 0.9697
-6.8809 -2.5106 -2.3899 0.9697
-6.8654 -2.5528 -2.3899 0.9697
-6.8496 -2.5948 -2.3899 0.9697
-6.8335 -2.6368 -2.3899 0.9697
-6.8172 -2.6787 -2.3899 0.9697
-6.8006 -2.7205 -2.3899 0.9697
-6.7838 -2.7622 -2.3899 0.9697
-6.7667 -2.8038 -2.3899 0.9697
-6.7494 -2.8453 -2.3899 0.9697
-6.7318 -2.8866 -2.3899 0.9697
-6.7139 -2.9279 -2.3899 0.9697
-6.6959 -2.9690 -2.3899 0.9697
-6.6589 -3.0510 -2.3899 0.9697
-6.6400 -3.0918 -2.3899 0.9697
-6.6210 -3.1325 -2.3899 0.9697
-6.6016 -3.1731 -2.3899 0.9697
-6.5820 -3.2136 -2.3899 0.9697
-6.5622 -3.2539 -2.3899 0.9697
-6.5421 -3.2941 -2.3899 0.9697
-6.5217 -3.3342 -2.3899 0.9697
-6.5011 -3.3742 -2.3899 0.9697
-6.4803 -3.4140 -2.3899 0.9697
-6.4379 -3.4933 -2.3899 0.9697
-6.4163 -3.5328 -2.3899 0.9697
-6.3945 -3.5721 -2.3899 0.9697
-6.3725 -3.6112 -2.3899 0.9697
-6.3049 -3.7280 -2.3899 0.9697
-6.2819 -3.7666 -2.3899 0.9697
-6.2352 -3.8434 -2.3899 0.9697
-6.2115 -3.8816 -2.3899 0.9697
-6.1634 -3.9576 -2.3899 0.9697
-6.1143 -4.0329 -2.3899 0.9697
-6.0895 -4.0704 -2.3899 0.9697
-6.0644 -4.1077 -2.3899 0.9697
-6.0390 -4.1448 -2.3899 0.9697
-6.0135 -4.1818 -2.3899 0.9697
-5.9877 -4.2186 -2.3899 0.9697
-5.9617 -4.2553 -2.3899 0.9697
-5.9355 -4.2918 -2.3899 0.9697
-5.9090 -4.3282 -2.3899 0.9697
-5.8823 -4.3644 -2.3899 0.9697
-5.8555 -4.4004 -2.3899 0.9697
-5.8010 -4.4719 -2.3899 0.9697
-5.7735 -4.5074 -2.3899 0.9697
-5.7457 -4.5428 -2.3899 0.9697
-5.7177 -4.5780 -2.3899 0.9697
-5.6895 -4.6130 -2.3899 0.9697
-5.6611 -4.6478 -2.3899 0.9697
-5.6036 -4.7170 -2.3899 0.9697
-5.5745 -4.7512 -2.3899 0.9697
-5.5453 -4.7854 -2.3899 0.9697
-5.5158 -4.8193 -2.3899 0.9697
-5.4861 -4.8531 -2.3899 0.9697
-5.4562 -4.8867 -2.3899 0.9697
-5.4261 -4.9201 -2.3899 0.9697
-5.3958 -4.9533 -2.3899 0.9697
-5.3653 -4.9863 -2.3899 0.9697
-5.3037 -5.0518 -2.3899 0.9697
-5.2726 -5.0842 -2.3899 0.9697
-5.2413 -5.1165 -2.3899 0.9697
-5.2098 -5.1486 -2.3899 0.9697
-5.1781 -5.1805 -2.3899 0.9697
-5.1462 -5.2121 -2.3899 0.9697
-5.1141 -5.2437 -2.3899 0.9697
-5.0818 -5.2749 -2.3899 0.9697
-5.0493 -5.3060 -2.3899 0.9697
-4.9508 -5.3981 -2.3899 0.9697
-4.9176 -5.4284 -2.3899 0.9697
-4.8842 -5.4584 -2.3899 0.9697
-4.8506 -5.4883 -2.3899 0.9697
-4.8168 -5.5180 -2.3899 0.9697
-4.7828 -5.5475 -2.3899 0.9697
-4.7487 -5.5767 -2.3899 0.9697
-4.7144 -5.6057 -2.3899 0.9697
-4.6799 -5.6346 -2.3899 0.9697
-4.6452 -5.6632 -2.3899 0.9697
-4.6104 -5.6916 -2.3899 0.9697
-4.5753 -5.7198 -2.3899 0.9697
-4.5402 -5.7478 -2.3899 0.9697
-4.5048 -5.7755 -2.3899 0.9697
-4.4693 -5.8031 -2.3899 0.9697
-4.4266 -5.8212 -2.3862 0.9697
-4.3704 -5.8212 -2.3751 0.9698
-4.3148 -5.8212 -2.3643 0.9700
-4.2051 -5.8212 -2.3431 0.9702
-4.1516 -5.8221 -2.3332 0.9704
-4.0480 -5.8268 -2.3150 0.9706
-3.9968 -5.8291 -2.3061 0.9707
-3.9459 -5.8313 -2.2974 0.9708
-3.8954 -5.8335 -2.2888 0.9709
-3.8560 -5.8520 -2.2867 0.9709
-3.8200 -5.8755 -2.2867 0.9709
-3.7839 -5.8989 -2.2867 0.9709
-3.6710 -5.8008 -2.2399 0.9715
-3.6242 -5.8056 -2.2331 0.9716
-3.5848 -5.8217 -2.2308 0.9716
-3.4879 -5.8233 -2.2148 0.9718
-3.4363 -5.8179 -2.2047 0.9720
-3.3807 -5.8046 -2.1918 0.9721
-3.3187 -5.8625 -2.1981 0.9721
-3.3369 -5.9800 -2.2344 0.9716
-3.3124 -6.1113 -2.2681 0.9712
-3.3017 -6.1817 -2.2867 0.9709
-3.2255 -6.2217 -2.2867 0.9709
-3.1873 -6.2414 -2.2867 0.9709
-3.1489 -6.2609 -2.2867 0.9709
-3.1104 -6.2801 -2.2867 0.9709
-3.0718 -6.2991 -2.2867 0.9709
-3.0331 -6.3178 -2.2867 0.9709
-2.9943 -6.3363 -2.2867 0.9709
-2.9553 -6.3546 -2.2867 0.9709
-2.8378 -6.4079 -2.2867 0.9709
-2.7984 -6.4252 -2.2867 0.9709
-2.7589 -6.4422 -2.2867 0.9709
-2.6797 -6.4756 -2.2867 0.9709
-2.6399 -6.4919 -2.2867 0.9709
-2.6000 -6.5080 -2.2867 0.9709
-2.5600 -6.5239 -2.2867 0.9709
-2.5199 -6.5394 -2.2867 0.9709
-2.4797 -6.5548 -2.2867 0.9709
-2.4394 -6.5699 -2.2867 0.9709
-2.3991 -6.5847 -2.2867 0.9709
-2.3586 -6.5993 -2.2867 0.9709
-2.3181 -6.6137 -2.2867 0.9709
-2.2774 -6.6278 -2.2867 0.9709
-2.2367 -6.6416 -2.2867 0.9709
-2.1550 -6.6686 -2.2867 0.9709
-2.0319 -6.7071 -2.2867 0.9709
-1.9907 -6.7195 -2.2867 0.9709
-1.8666 -6.7550 -2.2867 0.9709
-1.8251 -6.7663 -2.2867 0.9709
-1.7835 -6.7774 -2.2867 0.9709
-1.7419 -6.7882 -2.2867 0.9709
-1.6584 -6.8091 -2.2867 0.9709
-1.6166 -6.8191 -2.2867 0.9709
-1.5747 -6.8289 -2.2867 0.9709
-1.5328 -6.8385 -2.2867 0.9709
-1.4066 -6.8655 -2.2867 0.9709
-1.3645 -6.8740 -2.2867 0.9709
-1.3222 -6.8823 -2.2867 0.9709
-1.2800 -6.8903 -2.2867 0.9709
-1.2377 -6.8980 -2.2867 0.9709
-1.1953 -6.9055 -2.2867 0.9709
-1.1529 -6.9127 -2.2867 0.9709
-1.1104 -6.9196 -2.2867 0.9709
-1.0679 -6.9263 -2.2867 0.9709
-1.0254 -6.9327 -2.2867 0.9709
-0.9828 -6.9389 -2.2867 0.9709
-0.8549 -6.9558 -2.2867 0.9709
-0.8122 -6.9609 -2.2867 0.9709
-0.7695 -6.9658 -2.2867 0.9709
-0.7267 -6.9704 -2.2867 0.9709
-0.6839 -6.9747 -2.2867 0.9709
-0.6411 -6.9788 -2.2867 0.9709
-0.5982 -6.9826 -2.2867 0.9709
-0.5554 -6.9861 -2.2867 0.9709
-0.5125 -6.9894 -2.2867 0.9709
-0.4696 -6.9924 -2.2867 0.9709
-0.3837 -6.9976 -2.2867 0.9709
-0.3407 -6.9999 -2.2867 0.9709
-0.2978 -7.0018 -2.2867 0.9709
-0.2548 -7.0035 -2.2867 0.9709
-0.2118 -7.0050 -2.2867 0.9709
-0.1688 -7.0061 -2.2867 0.9709
-0.1258 -7.0070 -2.2867 0.9709
-0.0828 -7.0077 -2.2867 0.9709
-0.0398 -7.0080 -2.2867 0.9709
0.0032 -7.0082 -2.2867 0.9709
0.0462 -7.0080 -2.2867 0.9709
0.0892 -7.0076 -2.2867 0.9709
0.1323 -7.0069 -2.2867 0.9709
0.1753 -7.0060 -2.2867 0.9709
0.2183 -7.0048 -2.2867 0.9709
0.2612 -7.0033 -2.2867 0.9709
0.3042 -7.0016 -2.2867 0.9709
0.3472 -6.9996 -2.2867 0.9709
0.4331 -6.9948 -2.2867 0.9709
0.4760 -6.9920 -2.2867 0.9709
0.5189 -6.9889 -2.2867 0.9709
0.5618 -6.9856 -2.2867 0.9709
0.6047 -6.9820 -2.2867 0.9709
0.6475 -6.9782 -2.2867 0.9709
0.6903 -6.9741 -2.2867 0.9709
0.7331 -6.9697 -2.2867 0.9709
0.7759 -6.9651 -2.2867 0.9709
0.8613 -6.9550 -2.2867 0.9709
0.9040 -6.9496 -2.2867 0.9709
0.9466 -6.9439 -2.2867 0.9709
0.9892 -6.9380 -2.2867 0.9709
1.0318 -6.9318 -2.2867 0.9709
1.0744 -6.9253 -2.2867 0.9709
1.1168 -6.9186 -2.2867 0.9709
1.1592 -6.9116 -2.2867 0.9709
1.2017 -6.9044 -2.2867 0.9709
1.2440 -6.8969 -2.2867 0.9709
1.2863 -6.8891 -2.2867 0.9709
1.4129 -6.8642 -2.2867 0.9709
1.4551 -6.8554 -2.2867 0.9709
1.4971 -6.8464 -2.2867 0.9709
1.5391 -6.8371 -2.2867 0.9709
1.5810 -6.8275 -2.2867 0.9709
1.6229 -6.8177 -2.2867 0.9709
1.6647 -6.8076 -2.2867 0.9709
1.7064 -6.7972 -2.2867 0.9709
1.7481 -6.7866 -2.2867 0.9709
1.7898 -6.7758 -2.2867 0.9709
1.8728 -6.7533 -2.2867 0.9709
1.9142 -6.7417 -2.2867 0.9709
1.9556 -6.7298 -2.2867 0.9709
1.9968 -6.7177 -2.2867 0.9709
2.0380 -6.7053 -2.2867 0.9709
2.0791 -6.6926 -2.2867 0.9709
2.1202 -6.6797 -2.2867 0.9709
2.1611 -6.6666 -2.2867 0.9709
2.2020 -6.6532 -2.2867 0.9709
2.2835 -6.6257 -2.2867 0.9709
2.3241 -6.6116 -2.2867 0.9709
2.3647 -6.5972 -2.2867 0.9709
2.4051 -6.5825 -2.2867 0.9709
2.4455 -6.5676 -2.2867 0.9709
2.4858 -6.5525 -2.2867 0.9709
2.5259 -6.5371 -2.2867 0.9709
2.5660 -6.5215 -2.2867 0.9709
2.6060 -6.5056 -2.2867 0.9709
2.6458 -6.4895 -2.2867 0.9709
2.6856 -6.4731 -2.2867 0.9709
2.7253 -6.4565 -2.2867 0.9709
2.8043 -6.4226 -2.2867 0.9709
2.8437 -6.4053 -2.2867 0.9709
2.9221 -6.3699 -2.2867 0.9709
2.9612 -6.3518 -2.2867 0.9709
3.0001 -6.3335 -2.2867 0.9709
3.0389 -6.3150 -2.2867 0.9709
3.0776 -6.2962 -2.2867 0.9709
3.1547 -6.2580 -2.2867 0.9709
3.1930 -6.2385 -2.2867 0.9709
3.2694 -6.1988 -2.2867 0.9709
3.3073 -6.1786 -2.2867 0.9709
3.3452 -6.1582 -2.2867 0.9709
3.3829 -6.1376 -2.2867 0.9709
3.4206 -6.1167 -2.2867 0.9709
3.4580 -6.0956 -2.2867 0.9709
3.4954 -6.0743 -2.2867 0.9709
3.5326 -6.0527 -2.2867 0.9709
3.5718 -6.0345 -2.2880 0.9709
3.6208 -6.0324 -2.2956 0.9708
3.6435 -5.9866 -2.2867 0.9709
3.6801 -5.9641 -2.2867 0.9709
3.7531 -5.9185 -2.2867 0.9709
3.7893 -5.8954 -2.2867 0.9709
3.8254 -5.8720 -2.2867 0.9709
3.8614 -5.8484 -2.2867 0.9709
3.9029 -5.8332 -2.2900 0.9709
3.9535 -5.8310 -2.2987 0.9708
4.0044 -5.8287 -2.3074 0.9707
4.0557 -5.8264 -2.3163 0.9706
4.1595 -5.8218 -2.3346 0.9703
4.2133 -5.8212 -2.3447 0.9702
4.2680 -5.8212 -2.3552 0.9701
4.3231 -5.8212 -2.3659 0.9700
4.3788 -5.8212 -2.3768 0.9698
4.4351 -5.8212 -2.3878 0.9697
4.4746 -5.7989 -2.3899 0.9697
4.5101 -5.7714 -2.3899 0.9697
4.5454 -5.7436 -2.3899 0.9697
4.5806 -5.7156 -2.3899 0.9697
4.6156 -5.6874 -2.3899 0.9697
4.6504 -5.6589 -2.3899 0.9697
4.6851 -5.6303 -2.3899 0.9697
4.7195 -5.6014 -2.3899 0.9697
4.7538 -5.5723 -2.3899 0.9697
4.7879 -5.5430 -2.3899 0.9697
4.8556 -5.4839 -2.3899 0.9697
4.8892 -5.4540 -2.3899 0.9697
4.9226 -5.4238 -2.3899 0.9697
4.9558 -5.3935 -2.3899 0.9697
4.9888 -5.3630 -2.3899 0.9697
5.0216 -5.3323 -2.3899 0.9697
5.0542 -5.3014 -2.3899 0.9697
5.1189 -5.2389 -2.3899 0.9697
5.1828 -5.1757 -2.3899 0.9697
5.2145 -5.1438 -2.3899 0.9697
5.2772 -5.0794 -2.3899 0.9697
5.3083 -5.0469 -2.3899 0.9697
5.3392 -5.0142 -2.3899 0.9697
5.3699 -4.9814 -2.3899 0.9697
5.4004 -4.9483 -2.3899 0.9697
5.4306 -4.9151 -2.3899 0.9697
5.4607 -4.8816 -2.3899 0.9697
5.4905 -4.8480 -2.3899 0.9697
5.5202 -4.8142 -2.3899 0.9697
5.5496 -4.7803 -2.3899 0.9697
5.5789 -4.7461 -2.3899 0.9697
5.6079 -4.7118 -2.3899 0.9697
5.6367 -4.6773 -2.3899 0.9697
5.6653 -4.6426 -2.3899 0.9697
5.6937 -4.6077 -2.3899 0.9697
5.7219 -4.5727 -2.3899 0.9697
5.7498 -4.5375 -2.3899 0.9697
5.7776 -4.5021 -2.3899 0.9697
5.8595 -4.3950 -2.3899 0.9697
5.8864 -4.3589 -2.3899 0.9697
5.9130 -4.3227 -2.3899 0.9697
5.9394 -4.2864 -2.3899 0.9697
5.9916 -4.2131 -2.3899 0.9697
6.0174 -4.1763 -2.3899 0.9697
6.0429 -4.1393 -2.3899 0.9697
6.0681 -4.1021 -2.3899 0.9697
6.0932 -4.0648 -2.3899 0.9697
6.1181 -4.0273 -2.3899 0.9697
6.1912 -3.9140 -2.3899 0.9697
6.2151 -3.8759 -2.3899 0.9697
6.2387 -3.8377 -2.3899 0.9697
6.2622 -3.7993 -2.3899 0.9697
6.2854 -3.7608 -2.3899 0.9697
6.3084 -3.7221 -2.3899 0.9697
6.3311 -3.6834 -2.3899 0.9697
6.3536 -3.6444 -2.3899 0.9697
6.3758 -3.6054 -2.3899 0.9697
6.3978 -3.5662 -2.3899 0.9697
6.4411 -3.4874 -2.3899 0.9697
6.4624 -3.4478 -2.3899 0.9697
6.5248 -3.3282 -2.3899 0.9697
6.5451 -3.2881 -2.3899 0.9697
6.5651 -3.2479 -2.3899 0.9697
6.5850 -3.2075 -2.3899 0.9697
6.6045 -3.1670 -2.3899 0.9697
6.6238 -3.1264 -2.3899 0.9697
6.6429 -3.0857 -2.3899 0.9697
6.6803 -3.0039 -2.3899 0.9697
6.6986 -2.9629 -2.3899 0.9697
6.7167 -2.9217 -2.3899 0.9697
6.7345 -2.8804 -2.3899 0.9697
6.7520 -2.8390 -2.3899 0.9697
6.7693 -2.7975 -2.3899 0.9697
6.7863 -2.7559 -2.3899 0.9697
6.8196 -2.6724 -2.3899 0.9697
6.8520 -2.5885 -2.3899 0.9697
6.8677 -2.5464 -2.3899 0.9697
6.8832 -2.5042 -2.3899 0.9697
6.8985 -2.4619 -2.3899 0.9697
6.9135 -2.4195 -2.3899 0.9697
6.9282 -2.3771 -2.3899 0.9697
6.9426 -2.3345 -2.3899 0.9697
6.9568 -2.2918 -2.3899 0.9697
6.9844 -2.2063 -2.3899 0.9697
6.9978 -2.1634 -2.3899 0.9697
7.0110 -2.1204 -2.3899 0.9697
7.0239 -2.0773 -2.3899 0.9697
7.0365 -2.0342 -2.3899 0.9697
7.0488 -1.9909 -2.3899 0.9697
7.0609 -1.9476 -2.3899 0.9697
7.0727 -1.9042 -2.3899 0.9697
7.0843 -1.8608 -2.3899 0.9697
7.0956 -1.8173 -2.3899 0.9697
7.1066 -1.7737 -2.3899 0.9697
7.1279 -1.6863 -2.3899 0.9697
7.1380 -1.6425 -2.3899 0.9697
7.1480 -1.5987 -2.3899 0.9697
7.1577 -1.5548 -2.3899 0.9697
7.1671 -1.5108 -2.3899 0.9697
7.1762 -1.4668 -2.3899 0.9697
7.1851 -1.4228 -2.3899 0.9697
7.1937 -1.3786 -2.3899 0.9697
7.2179 -1.2459 -2.3899 0.9697
7.2254 -1.2016 -2.3899 0.9697
7.2326 -1.1572 -2.3899 0.9697
7.2396 -1.1129 -2.3899 0.9697
7.2463 -1.0684 -2.3899 0.9697
7.2527 -1.0239 -2.3899 0.9697
7.2588 -0.9794 -2.3899 0.9697
7.2647 -0.9348 -2.3899 0.9697
7.2703 -0.8902 -2.3899 0.9697
7.2756 -0.8455 -2.3899 0.9697
7.2807 -0.8009 -2.3899 0.9697
7.2855 -0.7562 -2.3899 0.9697
7.2899 -0.7114 -2.3899 0.9697
7.2942 -0.6667 -2.3899 0.9697
7.2981 -0.6219 -2.3899 0.9697
7.3018 -0.5771 -2.3899 0.9697
7.3052 -0.5323 -2.3899 0.9697
7.3084 -0.4874 -2.3899 0.9697
7.3112 -0.4425 -2.3899 0.9697
7.3138 -0.3977 -2.3899 0.9697
7.3161 -0.3528 -2.3899 0.9697
7.3181 -0.3079 -2.3899 0.9697
7.3199 -0.2629 -2.3899 0.9697
7.3213 -0.2180 -2.3899 0.9697
7.3226 -0.1731 -2.3899 0.9697
7.3235 -0.1281 -2.3899 0.9697
7.3241 -0.0832 -2.3899 0.9697
7.3245 -0.0382 -2.3899 0.9697
7.3246 0.0068 -2.3899 0.9697
7.3244 0.0517 -2.3899 0.9697
7.3240 0.0967 -2.3899 0.9697
7.3232 0.1416 -2.3899 0.9697
7.3222 0.1866 -2.3899 0.9697
7.3209 0.2315 -2.3899 0.9697
7.3194 0.2764 -2.3899 0.9697
7.3175 0.3213 -2.3899 0.9697
7.3154 0.3662 -2.3899 0.9697
7.3131 0.4111 -2.3899 0.9697
7.3104 0.4560 -2.3899 0.9697
7.3074 0.5009 -2.3899 0.9697
7.3042 0.5457 -2.3899 0.9697
7.3008 0.5905 -2.3899 0.9697
7.2970 0.6353 -2.3899 0.9697
7.2929 0.6801 -2.3899 0.9697
7.2887 0.7249 -2.3899 0.9697
7.2792 0.8143 -2.3899 0.9697
7.2741 0.8589 -2.3899 0.9697
7.2570 0.9927 -2.3899 0.9697
7.2508 1.0372 -2.3899 0.9697
7.2443 1.0817 -2.3899 0.9697
7.2375 1.1262 -2.3899 0.9697
7.2231 1.2149 -2.3899 0.9697
7.2155 1.2592 -2.3899 0.9697
7.2077 1.3035 -2.3899 0.9697
7.1996 1.3477 -2.3899 0.9697
7.1912 1.3919 -2.3899 0.9697
7.1824 1.4360 -2.3899 0.9697
7.1735 1.4800 -2.3899 0.9697
7.1643 1.5240 -2.3899 0.9697
7.1548 1.5680 -2.3899 0.9697
7.1450 1.6119 -2.3899 0.9697
7.1350 1.6557 -2.3899 0.9697
7.1141 1.7431 -2.3899 0.9697
7.1033 1.7868 -2.3899 0.9697
7.0922 1.8304 -2.3899 0.9697
7.0809 1.8738 -2.3899 0.9697
7.0692 1.9173 -2.3899 0.9697
7.0573 1.9606 -2.3899 0.9697
7.0452 2.0039 -2.3899 0.9697
7.0200 2.0902 -2.3899 0.9697
7.0071 2.1333 -2.3899 0.9697
6.9938 2.1762 -2.3899 0.9697
6.8519 2.2247 -2.3506 0.9701
6.7281 2.2303 -2.3128 0.9706
6.6390 2.2460 -2.2868 0.9709
6.6251 2.2867 -2.2868 0.9709
6.6109 2.3273 -2.2868 0.9709
6.6027 2.4159 -2.2941 0.9709
6.5670 2.4487 -2.2868 0.9709
6.5364 2.5291 -2.2868 0.9709
6.5208 2.5692 -2.2868 0.9709
6.5049 2.6092 -2.2868 0.9709
6.4888 2.6490 -2.2868 0.9709
6.4724 2.6888 -2.2868 0.9709
6.4557 2.7285 -2.2868 0.9709
6.4389 2.7680 -2.2868 0.9709
6.4218 2.8075 -2.2868 0.9709
6.4044 2.8469 -2.2868 0.9709
6.3868 2.8861 -2.2868 0.9709
6.3690 2.9253 -2.2868 0.9709
6.3509 2.9643 -2.2868 0.9709
6.3326 3.0032 -2.2868 0.9709
6.3140 3.0420 -2.2868 0.9709
6.2953 3.0807 -2.2868 0.9709
6.2762 3.1193 -2.2868 0.9709
6.2570 3.1578 -2.2868 0.9709
6.2375 3.1961 -2.2868 0.9709
6.2177 3.2344 -2.2868 0.9709
6.1776 3.3104 -2.2868 0.9709
6.1365 3.3860 -2.2868 0.9709
6.1155 3.4236 -2.2868 0.9709
6.0944 3.4611 -2.2868 0.9709
6.0731 3.4984 -2.2868 0.9709
6.0515 3.5356 -2.2868 0.9709
6.0297 3.5727 -2.2868 0.9709
6.0076 3.6096 -2.2868 0.9709
5.9854 3.6465 -2.2868 0.9709
5.9629 3.6831 -2.2868 0.9709
5.9401 3.7196 -2.2868 0.9709
5.8940 3.7923 -2.2868 0.9709
5.8706 3.8284 -2.2868 0.9709
5.8471 3.8644 -2.2868 0.9709
5.8232 3.9002 -2.2868 0.9709
5.7992 3.9358 -2.2868 0.9709
5.7749 3.9713 -2.2868 0.9709
5.7504 4.0067 -2.2868 0.9709
5.7257 4.0419 -2.2868 0.9709
5.7008 4.0770 -2.2868 0.9709
5.6503 4.1467 -2.2868 0.9709
5.6248 4.1813 -2.2868 0.9709
5.5990 4.2157 -2.2868 0.9709
5.5730 4.2500 -2.2868 0.9709
5.5469 4.2841 -2.2868 0.9709
5.4938 4.3519 -2.2868 0.9709
5.4670 4.3855 -2.2868 0.9709
5.4400 4.4190 -2.2868 0.9709
5.3854 4.4854 -2.2868 0.9709
5.3577 4.5184 -2.2868 0.9709
5.3299 4.5512 -2.2868 0.9709
5.3019 4.5838 -2.2868 0.9709
5.2452 4.6486 -2.2868 0.9709
5.2165 4.6807 -2.2868 0.9709
5.1587 4.7444 -2.2868 0.9709
5.1295 4.7759 -2.2868 0.9709
5.1001 4.8073 -2.2868 0.9709
5.0705 4.8386 -2.2868 0.9709
5.0407 4.8696 -2.2868 0.9709
5.0107 4.9004 -2.2868 0.9709
4.9805 4.9311 -2.2868 0.9709
4.8889 5.0220 -2.2868 0.9709
4.7956 5.1111 -2.2868 0.9709
4.7641 5.1404 -2.2868 0.9709
4.6687 5.2273 -2.2868 0.9709
4.6041 5.2842 -2.2868 0.9709
4.5716 5.3124 -2.2868 0.9709
4.5389 5.3403 -2.2868 0.9709
4.5061 5.3681 -2.2868 0.9709
4.4730 5.3956 -2.2868 0.9709
4.4399 5.4230 -2.2868 0.9709
4.4065 5.4502 -2.2868 0.9709
4.3729 5.4771 -2.2868 0.9709
4.3392 5.5038 -2.2868 0.9709
4.3054 5.5304 -2.2868 0.9709
4.2372 5.5828 -2.2868 0.9709
4.2028 5.6087 -2.2868 0.9709
4.1683 5.6344 -2.2868 0.9709
4.1337 5.6599 -2.2868 0.9709
4.0988 5.6851 -2.2868 0.9709
4.0639 5.7102 -2.2868 0.9709
3.9935 5.7596 -2.2868 0.9709
3.9580 5.7840 -2.2868 0.9709
3.9225 5.8082 -2.2868 0.9709
3.8868 5.8322 -2.2868 0.9709
3.8509 5.8559 -2.2868 0.9709
3.8149 5.8795 -2.2868 0.9709
3.7787 5.9028 -2.2868 0.9709
3.7424 5.9258 -2.2868 0.9709
3.7060 5.9487 -2.2868 0.9709
3.6694 5.9713 -2.2868 0.9709
3.6327 5.9937 -2.2868 0.9709
3.5958 6.0159 -2.2868 0.9709
3.5588 6.0379 -2.2868 0.9709
3.5217 6.0596 -2.2868 0.9709
3.4845 6.0811 -2.2868 0.9709
3.4471 6.1024 -2.2868 0.9709
3.4095 6.1234 -2.2868 0.9709
3.2962 6.1852 -2.2868 0.9709
3.5406 6.9491 -2.5448 0.9677
3.5018 6.9785 -2.5476 0.9677
3.4628 7.0077 -2.5505 0.9676
3.4235 7.0367 -2.5533 0.9676
3.3840 7.0655 -2.5562 0.9676
3.3444 7.0941 -2.5590 0.9675
3.3045 7.1224 -2.5619 0.9675
3.2643 7.1506 -2.5648 0.9675
3.2240 7.1785 -2.5676 0.9674
3.1835 7.2062 -2.5705 0.9674
3.1427 7.2337 -2.5734 0.9674
3.1017 7.2610 -2.5763 0.9673
3.0605 7.2881 -2.5792 0.9673
3.0191 7.3149 -2.5821 0.9673
2.9775 7.3416 -2.5850 0.9672
2.9357 7.3680 -2.5879 0.9672
2.8936 7.3942 -2.5908 0.9671
2.8514 7.4201 -2.5937 0.9671
2.8137 7.4584 -2.6010 0.9670
2.3118 6.2437 -2.1724 0.9724
2.2683 6.2437 -2.1675 0.9724
2.2250 6.2437 -2.1627 0.9725
2.1820 6.2438 -2.1581 0.9726
2.1390 6.2438 -2.1535 0.9726
2.0963 6.2438 -2.1490 0.9727
2.4990 7.7575 -2.6593 0.9663
2.4580 7.7938 -2.6665 0.9662
2.4166 7.8298 -2.6737 0.9661
2.3748 7.8655 -2.6808 0.9660
2.3327 7.9009 -2.6880 0.9659
1.7585 6.2371 -2.1144 0.9731
1.7173 6.2371 -2.1108 0.9731
1.6779 6.2434 -2.1094 0.9732
1.6369 6.2434 -2.1060 0.9732
2.0724 8.1072 -2.7303 0.9654
2.0278 8.1404 -2.7373 0.9653
1.9828 8.1734 -2.7442 0.9652
1.9374 8.2060 -2.7511 0.9651
1.8917 8.2383 -2.7580 0.9651
1.8457 8.2702 -2.7648 0.9650
1.7993 8.3017 -2.7717 0.9649
1.7506 8.3236 -2.7753 0.9648
1.7015 8.3441 -2.7786 0.9648
1.6522 8.3640 -2.7818 0.9648
1.5529 8.4025 -2.7881 0.9647
1.5029 8.4209 -2.7911 0.9646
1.4023 8.4563 -2.7969 0.9646
1.3517 8.4732 -2.7997 0.9645
1.3010 8.4895 -2.8024 0.9645
1.2500 8.5054 -2.8050 0.9645
1.1989 8.5207 -2.8076 0.9644
1.1476 8.5355 -2.8101 0.9644
1.0961 8.5497 -2.8125 0.9644
1.0445 8.5634 -2.8149 0.9644
0.9927 8.5766 -2.8171 0.9643
0.8887 8.6013 -2.8214 0.9643
0.8365 8.6128 -2.8235 0.9642
0.7842 8.6237 -2.8254 0.9642
0.7317 8.6342 -2.8273 0.9642
0.6792 8.6440 -2.8291 0.9642
0.4520 6.2437 -2.0426 0.9740
0.5737 8.6620 -2.8325 0.9641
0.5200 8.6575 -2.8299 0.9642
0.4659 8.6419 -2.8238 0.9642
0.4119 8.6254 -2.8176 0.9643
0.3581 8.6082 -2.8112 0.9644
0.2212 6.2374 -2.0365 0.9741
0.1982 8.5516 -2.7910 0.9646
0.1453 8.5312 -2.7840 0.9647
0.0927 8.5101 -2.7769 0.9648
0.0404 8.4882 -2.7696 0.9649
-0.0086 6.2438 -2.0373 0.9741
-0.0469 6.2438 -2.0373 0.9741
-0.1150 8.4181 -2.7470 0.9652
-0.1662 8.3933 -2.7392 0.9653
-0.2171 8.3679 -2.7313 0.9654
-0.2681 8.3561 -2.7279 0.9654
-0.3193 8.3529 -2.7274 0.9654
-0.3705 8.3489 -2.7268 0.9654
-0.4726 8.3383 -2.7251 0.9655
-0.5236 8.3318 -2.7239 0.9655
-0.5744 8.3245 -2.7226 0.9655
-0.6252 8.3163 -2.7212 0.9655
-0.6758 8.3073 -2.7195 0.9655
-0.7263 8.2975 -2.7177 0.9656
-0.7767 8.2868 -2.7157 0.9656
-0.8269 8.2754 -2.7136 0.9656
-0.8769 8.2631 -2.7113 0.9656
-0.9267 8.2501 -2.7088 0.9657
-0.9764 8.2362 -2.7062 0.9657
-1.0259 8.2216 -2.7034 0.9657
-1.0742 8.1989 -2.6981 0.9658
-1.1220 8.1738 -2.6920 0.9659
-1.1694 8.1478 -2.6858 0.9660
-1.3096 8.0654 -2.6661 0.9662
-1.3555 8.0364 -2.6592 0.9663
-1.0926 6.2440 -2.0683 0.9737
-1.1322 6.2441 -2.0706 0.9737
-1.5354 7.9133 -2.6302 0.9667
-1.5794 7.8808 -2.6225 0.9667
-1.2900 6.2377 -2.0784 0.9736
-1.6660 7.8138 -2.6069 0.9669
-1.7086 7.7794 -2.5988 0.9670
-1.4116 6.2441 -2.0888 0.9734
-1.4520 6.2441 -2.0917 0.9734
-1.8339 7.6725 -2.5740 0.9674
-1.8747 7.6357 -2.5654 0.9675
-1.9150 7.5983 -2.5568 0.9676
-1.9549 7.5604 -2.5480 0.9677
-1.9943 7.5220 -2.5391 0.9678
-2.0332 7.4830 -2.5302 0.9679
-2.1131 7.4159 -2.5160 0.9681
-2.1592 7.4051 -2.5168 0.9681
-2.2053 7.3941 -2.5176 0.9681
-2.2518 7.3840 -2.5188 0.9680
-2.2983 7.3739 -2.5202 0.9680
-2.3444 7.3626 -2.5212 0.9680
-2.3905 7.3510 -2.5222 0.9680
-2.1158 6.2447 -2.1513 0.9726
-2.1587 6.2447 -2.1559 0.9726
-2.2016 6.2447 -2.1605 0.9725
-2.2448 6.2447 -2.1652 0.9725
-2.2882 6.2447 -2.1701 0.9724
-2.7585 7.2514 -2.5315 0.9679
-2.8044 7.2381 -2.5328 0.9679
-2.8961 7.2107 -2.5355 0.9678
-2.9420 7.1968 -2.5368 0.9678
-3.0335 7.1682 -2.5397 0.9678
-3.0792 7.1537 -2.5412 0.9678
-3.1249 7.1388 -2.5427 0.9677
-2.7787 6.2434 -2.2298 0.9717
-2.8223 6.2381 -2.2340 0.9716
-3.2619 7.0933 -2.5474 0.9677
-3.3075 7.0777 -2.5491 0.9677
-3.3531 7.0619 -2.5508 0.9676
-3.3986 7.0458 -2.5525 0.9676
-3.4441 7.0296 -2.5542 0.9676
-3.4896 7.0132 -2.5559 0.9676
-3.5351 6.9965 -2.5577 0.9676
-3.2372 6.2162 -2.2868 0.9709
-3.3133 6.1760 -2.2868 0.9709
-3.3511 6.1556 -2.2868 0.9709
-3.3888 6.1349 -2.2868 0.9709
-3.4264 6.1140 -2.2868 0.9709
-3.4639 6.0928 -2.2868 0.9709
-3.5012 6.0715 -2.2868 0.9709
-3.5384 6.0499 -2.2868 0.9709
-3.6124 6.0060 -2.2868 0.9709
-3.6492 5.9837 -2.2868 0.9709
-3.6859 5.9612 -2.2868 0.9709
-3.7224 5.9384 -2.2868 0.9709
-3.7588 5.9155 -2.2868 0.9709
-3.7950 5.8923 -2.2868 0.9709
-3.8311 5.8689 -2.2868 0.9709
-3.8670 5.8453 -2.2868 0.9709
-3.9029 5.8214 -2.2868 0.9709
-3.9385 5.7974 -2.2868 0.9709
-3.9740 5.7731 -2.2868 0.9709
-4.0094 5.7486 -2.2868 0.9709
-4.0446 5.7239 -2.2868 0.9709
-4.0796 5.6989 -2.2868 0.9709
-4.1145 5.6738 -2.2868 0.9709
-4.1493 5.6484 -2.2868 0.9709
-4.1839 5.6228 -2.2868 0.9709
-4.2183 5.5971 -2.2868 0.9709
-4.2525 5.5711 -2.2868 0.9709
-4.2867 5.5449 -2.2868 0.9709
-4.3206 5.5185 -2.2868 0.9709
-4.3544 5.4918 -2.2868 0.9709
-4.3881 5.4650 -2.2868 0.9709
-4.4215 5.4380 -2.2868 0.9709
-4.4548 5.4107 -2.2868 0.9709
-4.4879 5.3833 -2.2868 0.9709
-4.5209 5.3556 -2.2868 0.9709
-4.5537 5.3278 -2.2868 0.9709
-4.6187 5.2715 -2.2868 0.9709
-4.6510 5.2430 -2.2868 0.9709
-4.6831 5.2144 -2.2868 0.9709
-4.7150 5.1855 -2.2868 0.9709
-4.5876 4.9836 -2.2102 0.9719
-4.5876 4.9227 -2.1956 0.9721
-4.5876 4.8625 -2.1813 0.9723
-4.5876 4.8031 -2.1672 0.9724
-4.5876 4.7444 -2.1534 0.9726
-4.5876 4.6865 -2.1399 0.9728
-4.6266 4.6687 -2.1446 0.9727
-4.6838 4.6687 -2.1578 0.9726
-4.9941 4.9173 -2.2868 0.9709
-5.0242 4.8866 -2.2868 0.9709
-5.0541 4.8556 -2.2868 0.9709
-5.0838 4.8245 -2.2868 0.9709
-5.1133 4.7932 -2.2868 0.9709
-5.1426 4.7618 -2.2868 0.9709
-5.2007 4.6983 -2.2868 0.9709
-5.2295 4.6663 -2.2868 0.9709
-5.2580 4.6341 -2.2868 0.9709
-5.2863 4.6017 -2.2868 0.9709
-5.3145 4.5692 -2.2868 0.9709
-5.3424 4.5365 -2.2868 0.9709
-5.3702 4.5036 -2.2868 0.9709
-5.3977 4.4706 -2.2868 0.9709
-5.4251 4.4373 -2.2868 0.9709
-5.4522 4.4040 -2.2868 0.9709
-5.4791 4.3704 -2.2868 0.9709
-5.5058 4.3367 -2.2868 0.9709
-5.5323 4.3028 -2.2868 0.9709
-5.5587 4.2688 -2.2868 0.9709
-5.5847 4.2346 -2.2868 0.9709
-5.6106 4.2002 -2.2868 0.9709
-5.6363 4.1657 -2.2868 0.9709
-5.6617 4.1311 -2.2868 0.9709
-5.6870 4.0962 -2.2868 0.9709
-5.7121 4.0612 -2.2868 0.9709
-5.7369 4.0261 -2.2868 0.9709
-5.7615 3.9908 -2.2868 0.9709
-5.7858 3.9554 -2.2868 0.9709
-5.8100 3.9198 -2.2868 0.9709
-5.8340 3.8841 -2.2868 0.9709
-5.8577 3.8482 -2.2868 0.9709
-5.8812 3.8122 -2.2868 0.9709
-5.9045 3.7760 -2.2868 0.9709
-5.9276 3.7397 -2.2868 0.9709
-5.9504 3.7032 -2.2868 0.9709
-5.9730 3.6666 -2.2868 0.9709
-5.9954 3.6299 -2.2868 0.9709
-6.0176 3.5930 -2.2868 0.9709
-6.0395 3.5560 -2.2868 0.9709
-6.0612 3.5189 -2.2868 0.9709
-6.0827 3.4816 -2.2868 0.9709
-6.1040 3.4442 -2.2868 0.9709
-6.1250 3.4067 -2.2868 0.9709
-6.1663 3.3313 -2.2868 0.9709
-6.1867 3.2934 -2.2868 0.9709
-6.2068 3.2553 -2.2868 0.9709
-6.2463 3.1789 -2.2868 0.9709
-6.2656 3.1405 -2.2868 0.9709
-6.2848 3.1020 -2.2868 0.9709
-6.3038 3.0633 -2.2868 0.9709
-6.3224 3.0246 -2.2868 0.9709
-6.3591 2.9468 -2.2868 0.9709
-6.3771 2.9077 -2.2868 0.9709
-6.4123 2.8292 -2.2868 0.9709
-6.4295 2.7898 -2.2868 0.9709
-6.4465 2.7503 -2.2868 0.9709
-6.4632 2.7106 -2.2868 0.9709
-6.4798 2.6709 -2.2868 0.9709
-6.4960 2.6311 -2.2868 0.9709
-6.5121 2.5912 -2.2868 0.9709
-6.5279 2.5512 -2.2868 0.9709
-6.5434 2.5110 -2.2868 0.9709
-6.5737 2.4305 -2.2868 0.9709
-6.5885 2.3901 -2.2868 0.9709
-6.6030 2.3497 -2.2868 0.9709
-6.6173 2.3091 -2.2868 0.9709
-6.6314 2.2684 -2.2868 0.9709
-6.6659 2.2346 -2.2940 0.9709
-6.7799 2.2266 -2.3284 0.9704
-6.9169 2.2247 -2.3708 0.9699
-6.9864 2.1998 -2.3899 0.9697
-6.9998 2.1569 -2.3899 0.9697
-7.0129 2.1139 -2.3899 0.9697
-7.0258 2.0708 -2.3899 0.9697
-7.0383 2.0277 -2.3899 0.9697
-7.0506 1.9844 -2.3899 0.9697
-7.0745 1.8977 -2.3899 0.9697
-7.0860 1.8543 -2.3899 0.9697
-7.0972 1.8108 -2.3899 0.9697
-7.1082 1.7672 -2.3899 0.9697
-7.1189 1.7235 -2.3899 0.9697
-7.1294 1.6798 -2.3899 0.9697
-7.1396 1.6360 -2.3899 0.9697
-7.1495 1.5921 -2.3899 0.9697
-7.1591 1.5482 -2.3899 0.9697
-7.1685 1.5043 -2.3899 0.9697
-7.1776 1.4602 -2.3899 0.9697
-7.1864 1.4162 -2.3899 0.9697
-7.1949 1.3720 -2.3899 0.9697
-7.2033 1.3278 -2.3899 0.9697
-7.2112 1.2836 -2.3899 0.9697
-7.2190 1.2393 -2.3899 0.9697
-7.2337 1.1506 -2.3899 0.9697
-7.2406 1.1062 -2.3899 0.9697
-7.2472 1.0617 -2.3899 0.9697
-7.2536 1.0172 -2.3899 0.9697
-7.2597 0.9727 -2.3899 0.9697
-7.2655 0.9281 -2.3899 0.9697
-7.2711 0.8835 -2.3899 0.9697
-7.2764 0.8388 -2.3899 0.9697
-7.2814 0.7942 -2.3899 0.9697
-7.2862 0.7495 -2.3899 0.9697
-7.2948 0.6600 -2.3899 0.9697
-7.2987 0.6152 -2.3899 0.9697
-7.3024 0.5704 -2.3899 0.9697
-7.3057 0.5255 -2.3899 0.9697
-7.3088 0.4807 -2.3899 0.9697
-7.3116 0.4358 -2.3899 0.9697
-7.3142 0.3909 -2.3899 0.9697
-7.3164 0.3460 -2.3899 0.9697
-7.3184 0.3011 -2.3899 0.9697
-7.3201 0.2562 -2.3899 0.9697
-7.3216 0.2113 -2.3899 0.9697
-7.3227 0.1663 -2.3899 0.9697
-7.3236 0.1214 -2.3899 0.9697
-7.3242 0.0764 -2.3899 0.9697
-7.3246 0.0315 -2.3899 0.9697
-7.3246 -0.0135 -2.3899 0.9697
-7.3244 -0.0584 -2.3899 0.9697
-7.3238 -0.1034 -2.3899 0.9697
-7.3231 -0.1483 -2.3899 0.9697
-7.3220 -0.1933 -2.3899 0.9697
-7.3207 -0.2382 -2.3899 0.9697
-7.3191 -0.2832 -2.3899 0.9697
-7.3151 -0.3730 -2.3899 0.9697
-7.3127 -0.4179 -2.3899 0.9697
-7.3070 -0.5076 -2.3899 0.9697
-7.3038 -0.5524 -2.3899 0.9697
-7.3002 -0.5973 -2.3899 0.9697
-7.2964 -0.6421 -2.3899 0.9697
-7.2923 -0.6868 -2.3899 0.9697
-7.2879 -0.7316 -2.3899 0.9697
-7.2834 -0.7763 -2.3899 0.9697
-7.2785 -0.8210 -2.3899 0.9697
-7.2733 -0.8656 -2.3899 0.9697
-7.2678 -0.9103 -2.3899 0.9697
-7.2621 -0.9548 -2.3899 0.9697
-7.2561 -0.9994 -2.3899 0.9697
-7.2498 -1.0439 -2.3899 0.9697
-7.2433 -1.0884 -2.3899 0.9697
-7.2365 -1.1328 -2.3899 0.9697
-7.2294 -1.1772 -2.3899 0.9697
-7.2220 -1.2216 -2.3899 0.9697
-7.2065 -1.3101 -2.3899 0.9697
-7.1983 -1.3543 -2.3899 0.9697
-7.1899 -1.3985 -2.3899 0.9697
-7.1812 -1.4426 -2.3899 0.9697
-7.1721 -1.4866 -2.3899 0.9697
-7.1533 -1.5746 -2.3899 0.9697
-7.1435 -1.6185 -2.3899 0.9697
-7.1335 -1.6623 -2.3899 0.9697
-7.1231 -1.7060 -2.3899 0.9697
-7.1017 -1.7933 -2.3899 0.9697
-7.0791 -1.8804 -2.3899 0.9697
-7.0674 -1.9238 -2.3899 0.9697
-7.0555 -1.9671 -2.3899 0.9697
-7.0433 -2.0104 -2.3899 0.9697
-7.0308 -2.0536 -2.3899 0.9697
-7.0181 -2.0967 -2.3899 0.9697
-7.0051 -2.1397 -2.3899 0.9697
-6.9918 -2.1827 -2.3899 0.9697
-6.9783 -2.2256 -2.3899 0.9697
-6.9645 -2.2683 -2.3899 0.9697
-6.9504 -2.3110 -2.3899 0.9697
-6.9362 -2.3537 -2.3899 0.9697
-6.9216 -2.3962 -2.3899 0.9697
-6.9067 -2.4386 -2.3899 0.9697
-6.8916 -2.4810 -2.3899 0.9697
-6.8763 -2.5232 -2.3899 0.9697
-6.8606 -2.5654 -2.3899 0.9697
-6.8448 -2.6074 -2.3899 0.9697
-6.8286 -2.6494 -2.3899 0.9697
-6.8123 -2.6913 -2.3899 0.9697
-6.7956 -2.7330 -2.3899 0.9697
-6.7787 -2.7747 -2.3899 0.9697
-6.7615 -2.8162 -2.3899 0.9697
-6.7441 -2.8577 -2.3899 0.9697
-6.7265 -2.8990 -2.3899 0.9697
-6.7085 -2.9402 -2.3899 0.9697
-6.6904 -2.9814 -2.3899 0.9697
-6.6719 -3.0224 -2.3899 0.9697
-6.6533 -3.0633 -2.3899 0.9697
-6.6344 -3.1041 -2.3899 0.9697
-6.6152 -3.1447 -2.3899 0.9697
-6.5958 -3.1853 -2.3899 0.9697
-6.5761 -3.2257 -2.3899 0.9697
-6.5562 -3.2660 -2.3899 0.9697
-6.5360 -3.3062 -2.3899 0.9697
-6.5156 -3.3462 -2.3899 0.9697
-6.4949 -3.3861 -2.3899 0.9697
-6.4740 -3.4259 -2.3899 0.9697
-6.4315 -3.5051 -2.3899 0.9697
-6.4098 -3.5446 -2.3899 0.9697
-6.3879 -3.5838 -2.3899 0.9697
-6.3658 -3.6230 -2.3899 0.9697
-6.3435 -3.6620 -2.3899 0.9697
-6.3209 -3.7008 -2.3899 0.9697
-6.2981 -3.7396 -2.3899 0.9697
-6.2750 -3.7781 -2.3899 0.9697
-6.2517 -3.8166 -2.3899 0.9697
-6.2281 -3.8549 -2.3899 0.9697
-6.2043 -3.8930 -2.3899 0.9697
-6.1803 -3.9311 -2.3899 0.9697
-6.1561 -3.9689 -2.3899 0.9697
-6.1316 -4.0066 -2.3899 0.9697
-6.1069 -4.0442 -2.3899 0.9697
-6.0820 -4.0816 -2.3899 0.9697
-6.0568 -4.1188 -2.3899 0.9697
-6.0314 -4.1559 -2.3899 0.9697
-6.0058 -4.1929 -2.3899 0.9697
-5.9799 -4.2297 -2.3899 0.9697
-5.9539 -4.2663 -2.3899 0.9697
-5.9276 -4.3028 -2.3899 0.9697
-5.9011 -4.3390 -2.3899 0.9697
-5.8743 -4.3752 -2.3899 0.9697
-5.8473 -4.4112 -2.3899 0.9697
-5.8202 -4.4470 -2.3899 0.9697
-5.7928 -4.4826 -2.3899 0.9697
-5.7651 -4.5181 -2.3899 0.9697
-5.7373 -4.5534 -2.3899 0.9697
-5.7092 -4.5885 -2.3899 0.9697
-5.6810 -4.6235 -2.3899 0.9697
-5.6525 -4.6582 -2.3899 0.9697
-5.6238 -4.6928 -2.3899 0.9697
-5.5949 -4.7273 -2.3899 0.9697
-5.5658 -4.7615 -2.3899 0.9697
-5.5364 -4.7956 -2.3899 0.9697
-5.5069 -4.8295 -2.3899 0.9697
-5.4771 -4.8632 -2.3899 0.9697
-5.4472 -4.8967 -2.3899 0.9697
-5.3867 -4.9632 -2.3899 0.9697
-5.3561 -4.9962 -2.3899 0.9697
-5.3254 -5.0290 -2.3899 0.9697
-5.2944 -5.0615 -2.3899 0.9697
-5.2632 -5.0939 -2.3899 0.9697
-5.2319 -5.1262 -2.3899 0.9697
-5.2003 -5.1582 -2.3899 0.9697
-5.1685 -5.1900 -2.3899 0.9697
-5.1366 -5.2216 -2.3899 0.9697
-5.1044 -5.2530 -2.3899 0.9697
-5.0721 -5.2843 -2.3899 0.9697
-5.0396 -5.3153 -2.3899 0.9697
-4.9740 -5.3768 -2.3899 0.9697
-4.9408 -5.4072 -2.3899 0.9697
-4.9076 -5.4374 -2.3899 0.9697
-4.8741 -5.4674 -2.3899 0.9697
-4.8066 -5.5268 -2.3899 0.9697
-4.7726 -5.5563 -2.3899 0.9697
-4.7384 -5.5854 -2.3899 0.9697
-4.7041 -5.6144 -2.3899 0.9697
-4.6695 -5.6432 -2.3899 0.9697
-4.6348 -5.6717 -2.3899 0.9697
-4.5999 -5.7001 -2.3899 0.9697
-4.5648 -5.7282 -2.3899 0.9697
-4.5296 -5.7561 -2.3899 0.9697
-4.4941 -5.7838 -2.3899 0.9697
-4.4586 -5.8113 -2.3899 0.9697
-4.4097 -5.8212 -2.3828 0.9697
-4.3537 -5.8212 -2.3719 0.9699
-4.2983 -5.8212 -2.3611 0.9700
-4.2433 -5.8212 -2.3505 0.9701
-4.1888 -5.8212 -2.3400 0.9703
-4.0841 -5.8252 -2.3213 0.9705
-4.0326 -5.8275 -2.3123 0.9706
-3.9815 -5.8297 -2.3035 0.9707
-3.9307 -5.8320 -2.2948 0.9708
-3.8811 -5.8354 -2.2867 0.9709
-3.8452 -5.8591 -2.2867 0.9709
-3.8092 -5.8825 -2.2867 0.9709
-3.7730 -5.9058 -2.2867 0.9709
-3.6129 -5.8112 -2.2327 0.9716
-3.5702 -5.8219 -2.2284 0.9717
-3.5217 -5.8227 -2.2203 0.9718
-3.4735 -5.8235 -2.2125 0.9719
-3.4167 -5.8090 -2.1990 0.9720
-3.3681 -5.8076 -2.1906 0.9721
-3.3340 -5.8311 -2.1917 0.9721
-3.3186 -5.8876 -2.2052 0.9720
-3.3362 -6.0047 -2.2413 0.9715
-3.3282 -6.0779 -2.2610 0.9713
-3.3082 -6.1303 -2.2729 0.9711
-3.2903 -6.1878 -2.2867 0.9709
-3.2522 -6.2078 -2.2867 0.9709
-3.1758 -6.2473 -2.2867 0.9709
-3.1374 -6.2667 -2.2867 0.9709
-3.0989 -6.2858 -2.2867 0.9709
-3.0602 -6.3047 -2.2867 0.9709
-3.0215 -6.3234 -2.2867 0.9709
-2.9826 -6.3418 -2.2867 0.9709
-2.9045 -6.3779 -2.2867 0.9709
-2.8653 -6.3956 -2.2867 0.9709
-2.8260 -6.4131 -2.2867 0.9709
-2.7866 -6.4303 -2.2867 0.9709
-2.7471 -6.4473 -2.2867 0.9709
-2.7075 -6.4641 -2.2867 0.9709
-2.6677 -6.4805 -2.2867 0.9709
-2.5880 -6.5128 -2.2867 0.9709
-2.5480 -6.5286 -2.2867 0.9709
-2.5078 -6.5441 -2.2867 0.9709
-2.4676 -6.5593 -2.2867 0.9709
-2.4273 -6.5744 -2.2867 0.9709
-2.3869 -6.5892 -2.2867 0.9709
-2.3465 -6.6037 -2.2867 0.9709
-2.3059 -6.6179 -2.2867 0.9709
-2.2652 -6.6320 -2.2867 0.9709
-2.2245 -6.6458 -2.2867 0.9709
-2.1836 -6.6593 -2.2867 0.9709
-2.1427 -6.6726 -2.2867 0.9709
-2.1017 -6.6856 -2.2867 0.9709
-2.0606 -6.6984 -2.2867 0.9709
-2.0195 -6.7109 -2.2867 0.9709
-1.9783 -6.7231 -2.2867 0.9709
-1.9370 -6.7352 -2.2867 0.9709
-1.8956 -6.7469 -2.2867 0.9709
-1.8542 -6.7584 -2.2867 0.9709
-1.8126 -6.7697 -2.2867 0.9709
-1.7711 -6.7807 -2.2867 0.9709
-1.7294 -6.7914 -2.2867 0.9709
-1.6877 -6.8019 -2.2867 0.9709
-1.6459 -6.8121 -2.2867 0.9709
-1.6040 -6.8221 -2.2867 0.9709
-1.5622 -6.8318 -2.2867 0.9709
-1.5202 -6.8413 -2.2867 0.9709
-1.4361 -6.8594 -2.2867 0.9709
-1.3940 -6.8681 -2.2867 0.9709
-1.3518 -6.8765 -2.2867 0.9709
-1.3096 -6.8847 -2.2867 0.9709
-1.2673 -6.8926 -2.2867 0.9709
-1.1826 -6.9077 -2.2867 0.9709
-1.0977 -6.9217 -2.2867 0.9709
-1.0552 -6.9283 -2.2867 0.9709
-1.0127 -6.9346 -2.2867 0.9709
-0.9701 -6.9407 -2.2867 0.9709
-0.9275 -6.9465 -2.2867 0.9709
-0.8848 -6.9521 -2.2867 0.9709
-0.8421 -6.9574 -2.2867 0.9709
-0.7994 -6.9624 -2.2867 0.9709
-0.7567 -6.9672 -2.2867 0.9709
-0.7139 -6.9717 -2.2867 0.9709
-0.6711 -6.9759 -2.2867 0.9709
-0.6282 -6.9799 -2.2867 0.9709
-0.5854 -6.9837 -2.2867 0.9709
-0.5425 -6.9871 -2.2867 0.9709
-0.4996 -6.9903 -2.2867 0.9709
-0.4567 -6.9933 -2.2867 0.9709
-0.4138 -6.9959 -2.2867 0.9709
-0.3708 -6.9983 -2.2867 0.9709
-0.3279 -7.0005 -2.2867 0.9709
-0.2849 -7.0024 -2.2867 0.9709
-0.2419 -7.0040 -2.2867 0.9709
-0.1989 -7.0053 -2.2867 0.9709
-0.1559 -7.0064 -2.2867 0.9709
-0.0699 -7.0078 -2.2867 0.9709
-0.0269 -7.0081 -2.2867 0.9709
0.0161 -7.0081 -2.2867 0.9709
0.0591 -7.0079 -2.2867 0.9709
0.1021 -7.0074 -2.2867 0.9709
0.1452 -7.0067 -2.2867 0.9709
0.1882 -7.0056 -2.2867 0.9709
0.2742 -7.0028 -2.2867 0.9709
0.3171 -7.0010 -2.2867 0.9709
0.3601 -6.9989 -2.2867 0.9709
0.4030 -6.9966 -2.2867 0.9709
0.4460 -6.9940 -2.2867 0.9709
0.4889 -6.9911 -2.2867 0.9709
0.5318 -6.9879 -2.2867 0.9709
0.5747 -6.9846 -2.2867 0.9709
0.6176 -6.9809 -2.2867 0.9709
0.6604 -6.9770 -2.2867 0.9709
0.7032 -6.9728 -2.2867 0.9709
0.7460 -6.9683 -2.2867 0.9709
0.7887 -6.9636 -2.2867 0.9709
0.8314 -6.9587 -2.2867 0.9709
0.8741 -6.9534 -2.2867 0.9709
0.9168 -6.9479 -2.2867 0.9709
0.9594 -6.9422 -2.2867 0.9709
1.0020 -6.9362 -2.2867 0.9709
1.0446 -6.9299 -2.2867 0.9709
1.0871 -6.9233 -2.2867 0.9709
1.1720 -6.9095 -2.2867 0.9709
1.2144 -6.9021 -2.2867 0.9709
1.2567 -6.8946 -2.2867 0.9709
1.2990 -6.8867 -2.2867 0.9709
1.3412 -6.8786 -2.2867 0.9709
1.3834 -6.8703 -2.2867 0.9709
1.4256 -6.8616 -2.2867 0.9709
1.4676 -6.8527 -2.2867 0.9709
1.5097 -6.8436 -2.2867 0.9709
1.5936 -6.8246 -2.2867 0.9709
1.6354 -6.8147 -2.2867 0.9709
1.6772 -6.8045 -2.2867 0.9709
1.7190 -6.7941 -2.2867 0.9709
1.8022 -6.7725 -2.2867 0.9709
1.8438 -6.7613 -2.2867 0.9709
1.8853 -6.7498 -2.2867 0.9709
1.9679 -6.7262 -2.2867 0.9709
2.0092 -6.7140 -2.2867 0.9709
2.0504 -6.7015 -2.2867 0.9709
2.1325 -6.6758 -2.2867 0.9709
2.1734 -6.6626 -2.2867 0.9709
2.2143 -6.6492 -2.2867 0.9709
2.2550 -6.6354 -2.2867 0.9709
2.3363 -6.6073 -2.2867 0.9709
2.3768 -6.5928 -2.2867 0.9709
2.4172 -6.5781 -2.2867 0.9709
2.4576 -6.5631 -2.2867 0.9709
2.4978 -6.5479 -2.2867 0.9709
2.5379 -6.5325 -2.2867 0.9709
2.6179 -6.5008 -2.2867 0.9709
2.6578 -6.4846 -2.2867 0.9709
2.6975 -6.4682 -2.2867 0.9709
2.7372 -6.4515 -2.2867 0.9709
2.8162 -6.4174 -2.2867 0.9709
2.8555 -6.4000 -2.2867 0.9709
2.8947 -6.3824 -2.2867 0.9709
2.9339 -6.3645 -2.2867 0.9709
2.9729 -6.3464 -2.2867 0.9709
3.0118 -6.3280 -2.2867 0.9709
3.0505 -6.3094 -2.2867 0.9709
3.1277 -6.2715 -2.2867 0.9709
3.1662 -6.2522 -2.2867 0.9709
3.2045 -6.2326 -2.2867 0.9709
3.2427 -6.2128 -2.2867 0.9709
3.2808 -6.1928 -2.2867 0.9709
3.3187 -6.1725 -2.2867 0.9709
3.3566 -6.1521 -2.2867 0.9709
3.3942 -6.1313 -2.2867 0.9709
3.4318 -6.1104 -2.2867 0.9709
3.4692 -6.0892 -2.2867 0.9709
3.5066 -6.0678 -2.2867 0.9709
3.5437 -6.0462 -2.2867 0.9709
3.5865 -6.0338 -2.2903 0.9709
3.6177 -6.0022 -2.2867 0.9709
3.6911 -5.9573 -2.2867 0.9709
3.7276 -5.9346 -2.2867 0.9709
3.7640 -5.9116 -2.2867 0.9709
3.8002 -5.8884 -2.2867 0.9709
3.8362 -5.8649 -2.2867 0.9709
3.8721 -5.8413 -2.2867 0.9709
3.9180 -5.8325 -2.2926 0.9709
3.9687 -5.8303 -2.3013 0.9708
4.0197 -5.8280 -2.3101 0.9707
4.0712 -5.8257 -2.3190 0.9705
4.1753 -5.8212 -2.3375 0.9703
4.2845 -5.8212 -2.3584 0.9700
4.3398 -5.8212 -2.3691 0.9699
4.3957 -5.8212 -2.3801 0.9698
4.4496 -5.8181 -2.3899 0.9697
4.4853 -5.7907 -2.3899 0.9697
4.5207 -5.7631 -2.3899 0.9697
4.5560 -5.7352 -2.3899 0.9697
4.5911 -5.7071 -2.3899 0.9697
4.6261 -5.6788 -2.3899 0.9697
4.6608 -5.6503 -2.3899 0.9697
4.6954 -5.6216 -2.3899 0.9697
4.7298 -5.5927 -2.3899 0.9697
4.7641 -5.5636 -2.3899 0.9697
4.7981 -5.5342 -2.3899 0.9697
4.8320 -5.5047 -2.3899 0.9697
4.8657 -5.4749 -2.3899 0.9697
4.8992 -5.4449 -2.3899 0.9697
4.9326 -5.4148 -2.3899 0.9697
4.9657 -5.3844 -2.3899 0.9697
4.9987 -5.3538 -2.3899 0.9697
5.0640 -5.2921 -2.3899 0.9697
5.0964 -5.2609 -2.3899 0.9697
5.1286 -5.2295 -2.3899 0.9697
5.1606 -5.1979 -2.3899 0.9697
5.1924 -5.1661 -2.3899 0.9697
5.2240 -5.1342 -2.3899 0.9697
5.2554 -5.1020 -2.3899 0.9697
5.2866 -5.0697 -2.3899 0.9697
5.3176 -5.0371 -2.3899 0.9697
5.3484 -5.0044 -2.3899 0.9697
5.3791 -4.9715 -2.3899 0.9697
5.4095 -4.9384 -2.3899 0.9697
5.4397 -4.9051 -2.3899 0.9697
5.4697 -4.8716 -2.3899 0.9697
5.4995 -4.8379 -2.3899 0.9697
5.5291 -4.8041 -2.3899 0.9697
5.5585 -4.7700 -2.3899 0.9697
5.5876 -4.7358 -2.3899 0.9697
5.6166 -4.7015 -2.3899 0.9697
5.6453 -4.6669 -2.3899 0.9697
5.6739 -4.6322 -2.3899 0.9697
5.7022 -4.5972 -2.3899 0.9697
5.7303 -4.5622 -2.3899 0.9697
5.7582 -4.5269 -2.3899 0.9697
5.7859 -4.4915 -2.3899 0.9697
5.8133 -4.4559 -2.3899 0.9697
5.8676 -4.3842 -2.3899 0.9697
5.8944 -4.3481 -2.3899 0.9697
5.9210 -4.3118 -2.3899 0.9697
5.9473 -4.2754 -2.3899 0.9697
