ply
format ascii 1.0
element vertex 1591
property float32 x
property float32 y
property float32 z
property float32 I
end_header
-0.9403 2.8748 -2.2962 0.9849
-0.9579 2.8690 -2.2962 0.9849
-0.9754 2.8630 -2.2962 0.9849
-0.9930 2.8569 -2.2962 0.9849
-1.0104 2.8507 -2.2961 0.9849
-1.0279 2.8444 -2.2961 0.9849
-1.0454 2.8380 -2.2961 0.9849
-1.0628 2.8315 -2.2960 0.9849
-1.0801 2.8249 -2.2960 0.9849
-1.0974 2.8182 -2.2960 0.9849
-1.1146 2.8114 -2.2959 0.9849
-1.1318 2.8045 -2.2959 0.9849
-1.1490 2.7974 -2.2959 0.9849
-1.1662 2.7903 -2.2959 0.9849
-1.2003 2.7757 -2.2958 0.9849
-1.2342 2.7607 -2.2957 0.9849
-1.2511 2.7530 -2.2957 0.9849
-1.2680 2.7453 -2.2957 0.9849
-1.2848 2.7374 -2.2957 0.9849
-1.3015 2.7294 -2.2956 0.9849
-1.3182 2.7213 -2.2956 0.9849
-1.3349 2.7132 -2.2956 0.9849
-1.3514 2.7049 -2.2955 0.9849
-1.3680 2.6965 -2.2955 0.9849
-1.3846 2.6880 -2.2955 0.9849
-1.4010 2.6795 -2.2954 0.9849
-1.4501 2.6531 -2.2954 0.9849
-1.4663 2.6441 -2.2953 0.9849
-1.4824 2.6351 -2.2953 0.9849
-1.4985 2.6259 -2.2953 0.9849
-1.5146 2.6166 -2.2952 0.9849
-1.5466 2.5978 -2.2952 0.9849
-1.5625 2.5882 -2.2952 0.9849
-1.5783 2.5785 -2.2951 0.9849
-1.5941 2.5687 -2.2951 0.9849
-1.6098 2.5589 -2.2951 0.9849
-1.6254 2.5489 -2.2951 0.9849
-1.6410 2.5389 -2.2950 0.9849
-1.6566 2.5287 -2.2950 0.9849
-1.6720 2.5185 -2.2950 0.9849
-1.6874 2.5082 -2.2949 0.9849
-1.7028 2.4977 -2.2949 0.9849
-1.7180 2.4872 -2.2949 0.9849
-1.7332 2.4766 -2.2949 0.9849
-1.7484 2.4659 -2.2948 0.9849
-1.7635 2.4550 -2.2948 0.9849
-1.7785 2.4442 -2.2948 0.9849
-1.7934 2.4332 -2.2948 0.9849
-1.8083 2.4221 -2.2947 0.9849
-1.8282 2.4177 -2.3011 0.9849
-1.8502 2.4158 -2.3101 0.9848
-1.8671 2.3769 -2.2946 0.9849
-1.8816 2.3654 -2.2946 0.9849
-1.9105 2.3420 -2.2945 0.9849
-1.9248 2.3302 -2.2945 0.9849
-1.9532 2.3064 -2.2945 0.9849
-1.9673 2.2943 -2.2944 0.9849
-1.9813 2.2822 -2.2944 0.9849
-1.9953 2.2700 -2.2944 0.9849
-2.0229 2.2453 -2.2943 0.9849
-2.0426 2.2393 -2.3011 0.9849
-2.0894 2.2350 -2.3227 0.9848
-2.1132 2.2327 -2.3338 0.9847
-2.1374 2.2307 -2.3454 0.9846
-2.1641 2.2311 -2.3597 0.9845
-2.1912 2.2315 -2.3743 0.9844
-2.2187 2.2319 -2.3891 0.9843
-2.2397 2.2256 -2.3971 0.9843
-2.2533 2.2117 -2.3970 0.9843
-2.2803 2.1839 -2.3970 0.9843
-2.2936 2.1698 -2.3970 0.9843
-2.3069 2.1557 -2.3969 0.9843
-2.3200 2.1415 -2.3969 0.9843
-2.3331 2.1272 -2.3969 0.9843
-2.3461 2.1128 -2.3969 0.9843
-2.3718 2.0838 -2.3968 0.9843
-2.3845 2.0692 -2.3968 0.9843
-2.3971 2.0545 -2.3968 0.9843
-2.4097 2.0397 -2.3968 0.9843
-2.4221 2.0249 -2.3967 0.9843
-2.4345 2.0100 -2.3967 0.9843
-2.4467 1.9950 -2.3967 0.9843
-2.4589 1.9799 -2.3967 0.9843
-2.4829 1.9496 -2.3966 0.9843
-2.4948 1.9343 -2.3966 0.9843
-2.5067 1.9189 -2.3966 0.9843
-2.5183 1.9035 -2.3965 0.9843
-2.5300 1.8880 -2.3965 0.9843
-2.5529 1.8567 -2.3965 0.9843
-2.5642 1.8410 -2.3965 0.9843
-2.5754 1.8252 -2.3964 0.9843
-2.5866 1.8094 -2.3964 0.9843
-2.5976 1.7935 -2.3964 0.9843
-2.6086 1.7775 -2.3964 0.9843
-2.6194 1.7614 -2.3964 0.9843
-2.6301 1.7453 -2.3963 0.9843
-2.6407 1.7291 -2.3963 0.9843
-2.6617 1.6966 -2.3963 0.9843
-2.6721 1.6802 -2.3963 0.9843
-2.6823 1.6637 -2.3962 0.9843
-2.6924 1.6472 -2.3962 0.9843
-2.7024 1.6307 -2.3962 0.9843
-2.7124 1.6140 -2.3962 0.9843
-2.7222 1.5973 -2.3962 0.9843
-2.7320 1.5806 -2.3961 0.9843
-2.7416 1.5638 -2.3961 0.9843
-2.7511 1.5469 -2.3961 0.9843
-2.7605 1.5300 -2.3961 0.9843
-2.7790 1.4960 -2.3960 0.9843
-2.7882 1.4789 -2.3960 0.9843
-2.7971 1.4617 -2.3960 0.9843
-1.5679 0.8072 -1.3388 0.9912
-1.5222 0.7718 -1.2957 0.9915
-1.4790 0.7386 -1.2551 0.9917
-1.2426 0.6110 -1.0513 0.9931
-1.2461 0.6033 -1.0510 0.9931
-1.2494 0.5955 -1.0507 0.9931
-1.2527 0.5876 -1.0504 0.9931
-1.2559 0.5797 -1.0501 0.9931
-1.2590 0.5718 -1.0498 0.9931
-1.2620 0.5639 -1.0494 0.9931
-1.2650 0.5559 -1.0490 0.9931
-1.2678 0.5479 -1.0485 0.9931
-1.2706 0.5399 -1.0481 0.9931
-1.2733 0.5318 -1.0476 0.9931
-1.2784 0.5156 -1.0465 0.9931
-1.2809 0.5075 -1.0460 0.9931
-1.2833 0.4994 -1.0454 0.9931
-1.2855 0.4912 -1.0448 0.9931
-1.2877 0.4830 -1.0441 0.9931
-1.2898 0.4748 -1.0434 0.9931
-1.2938 0.4583 -1.0420 0.9931
-1.2991 0.4334 -1.0397 0.9931
-1.3007 0.4251 -1.0389 0.9932
-1.3022 0.4168 -1.0380 0.9932
-1.3033 0.4083 -1.0369 0.9932
-1.3053 0.3914 -1.0345 0.9932
-1.3061 0.3829 -1.0333 0.9932
-1.3069 0.3745 -1.0321 0.9932
-1.3076 0.3660 -1.0308 0.9932
-1.3082 0.3575 -1.0296 0.9932
-1.3087 0.3491 -1.0283 0.9932
-1.3091 0.3406 -1.0270 0.9932
-1.3095 0.3321 -1.0256 0.9932
-1.3098 0.3237 -1.0243 0.9932
-1.3100 0.3152 -1.0229 0.9933
-1.3101 0.3067 -1.0215 0.9933
-1.3102 0.2898 -1.0187 0.9933
-1.3125 0.2819 -1.0191 0.9933
-1.3146 0.2739 -1.0195 0.9933
-1.3167 0.2659 -1.0198 0.9933
-1.3187 0.2579 -1.0201 0.9933
-1.3206 0.2499 -1.0204 0.9933
-1.3225 0.2419 -1.0207 0.9933
-1.3243 0.2338 -1.0209 0.9933
-1.3260 0.2257 -1.0212 0.9933
-1.3276 0.2176 -1.0214 0.9933
-1.3292 0.2095 -1.0216 0.9933
-1.3307 0.2014 -1.0218 0.9933
-1.3321 0.1933 -1.0219 0.9933
-1.3335 0.1851 -1.0221 0.9933
-1.3348 0.1770 -1.0222 0.9933
-1.3360 0.1688 -1.0223 0.9933
-1.3371 0.1606 -1.0224 0.9933
-1.3382 0.1524 -1.0225 0.9933
-1.3392 0.1442 -1.0226 0.9933
-1.3409 0.1278 -1.0226 0.9933
-1.3416 0.1195 -1.0226 0.9933
-1.3422 0.1113 -1.0225 0.9933
-1.3427 0.1030 -1.0223 0.9933
-1.3431 0.0948 -1.0222 0.9933
-1.3435 0.0865 -1.0220 0.9933
-1.3438 0.0783 -1.0219 0.9933
-1.3439 0.0700 -1.0217 0.9933
-1.3441 0.0617 -1.0215 0.9933
-1.3441 0.0535 -1.0213 0.9933
-1.3441 0.0452 -1.0210 0.9933
-1.3439 0.0287 -1.0205 0.9933
-1.3436 0.0204 -1.0202 0.9933
-1.3433 0.0122 -1.0199 0.9933
-1.3430 -0.0043 -1.0196 0.9933
-1.3434 -0.0125 -1.0199 0.9933
-1.3437 -0.0208 -1.0202 0.9933
-1.3440 -0.0373 -1.0208 0.9933
-1.3441 -0.0455 -1.0210 0.9933
-1.3441 -0.0538 -1.0213 0.9933
-1.3439 -0.0703 -1.0217 0.9933
-1.3437 -0.0786 -1.0219 0.9933
-1.3434 -0.0868 -1.0220 0.9933
-1.3427 -0.1034 -1.0223 0.9933
-1.3421 -0.1116 -1.0225 0.9933
-1.3416 -0.1199 -1.0226 0.9933
-1.3409 -0.1281 -1.0226 0.9933
-1.3401 -0.1363 -1.0226 0.9933
-1.3391 -0.1445 -1.0226 0.9933
-1.3381 -0.1527 -1.0225 0.9933
-1.3359 -0.1691 -1.0223 0.9933
-1.3347 -0.1773 -1.0222 0.9933
-1.3334 -0.1854 -1.0221 0.9933
-1.3306 -0.2017 -1.0218 0.9933
-1.3292 -0.2099 -1.0216 0.9933
-1.3276 -0.2180 -1.0214 0.9933
-1.3259 -0.2261 -1.0211 0.9933
-1.3224 -0.2422 -1.0206 0.9933
-1.3205 -0.2502 -1.0204 0.9933
-1.3186 -0.2583 -1.0201 0.9933
-1.3166 -0.2663 -1.0198 0.9933
-1.3145 -0.2743 -1.0194 0.9933
-1.3124 -0.2822 -1.0191 0.9933
-1.3102 -0.2902 -1.0188 0.9933
-1.3102 -0.2986 -1.0202 0.9933
-1.3101 -0.3071 -1.0216 0.9933
-1.3100 -0.3155 -1.0230 0.9933
-1.3098 -0.3240 -1.0243 0.9932
-1.3095 -0.3325 -1.0257 0.9932
-1.3091 -0.3409 -1.0270 0.9932
-1.3087 -0.3494 -1.0283 0.9932
-1.3075 -0.3664 -1.0309 0.9932
-1.3069 -0.3748 -1.0321 0.9932
-1.3061 -0.3833 -1.0334 0.9932
-1.3052 -0.3918 -1.0346 0.9932
-1.3043 -0.4002 -1.0358 0.9932
-1.3033 -0.4087 -1.0369 0.9932
-1.3022 -0.4171 -1.0381 0.9932
-1.2991 -0.4338 -1.0397 0.9931
-1.2974 -0.4421 -1.0405 0.9931
-1.2956 -0.4504 -1.0413 0.9931
-1.2937 -0.4586 -1.0421 0.9931
-1.2918 -0.4669 -1.0428 0.9931
-1.2897 -0.4751 -1.0435 0.9931
-1.2876 -0.4833 -1.0441 0.9931
-1.2831 -0.4997 -1.0454 0.9931
-1.2808 -0.5079 -1.0460 0.9931
-1.2783 -0.5160 -1.0466 0.9931
-1.2758 -0.5241 -1.0471 0.9931
-1.2732 -0.5322 -1.0476 0.9931
-1.2705 -0.5402 -1.0481 0.9931
-1.2677 -0.5482 -1.0486 0.9931
-1.2648 -0.5562 -1.0490 0.9931
-1.2619 -0.5642 -1.0494 0.9931
-1.2589 -0.5721 -1.0498 0.9931
-1.2557 -0.5801 -1.0501 0.9931
-1.2525 -0.5879 -1.0505 0.9931
-1.2493 -0.5958 -1.0508 0.9931
-1.2425 -0.6114 -1.0513 0.9931
-1.4808 -0.7400 -1.2568 0.9917
-1.5241 -0.7733 -1.2975 0.9915
-1.5700 -0.8087 -1.3407 0.9912
-2.7962 -1.4622 -2.3955 0.9843
-2.7872 -1.4793 -2.3955 0.9843
-2.7780 -1.4964 -2.3955 0.9843
-2.7688 -1.5134 -2.3955 0.9843
-2.7595 -1.5304 -2.3955 0.9843
-2.7501 -1.5473 -2.3956 0.9843
-2.7405 -1.5642 -2.3956 0.9843
-2.7309 -1.5809 -2.3956 0.9843
-2.7212 -1.5977 -2.3956 0.9843
-2.7113 -1.6144 -2.3956 0.9843
-2.7014 -1.6310 -2.3956 0.9843
-2.6913 -1.6475 -2.3956 0.9843
-2.6812 -1.6640 -2.3957 0.9843
-2.6710 -1.6804 -2.3957 0.9843
-2.6606 -1.6968 -2.3957 0.9843
-2.6502 -1.7131 -2.3957 0.9843
-2.6396 -1.7294 -2.3957 0.9843
-2.6290 -1.7455 -2.3957 0.9843
-2.6182 -1.7616 -2.3957 0.9843
-2.5964 -1.7937 -2.3958 0.9843
-2.5854 -1.8096 -2.3958 0.9843
-2.5743 -1.8254 -2.3958 0.9843
-2.5630 -1.8412 -2.3958 0.9843
-2.5517 -1.8569 -2.3958 0.9843
-2.5403 -1.8725 -2.3958 0.9843
-2.5288 -1.8881 -2.3959 0.9843
-2.5171 -1.9036 -2.3959 0.9843
-2.5055 -1.9190 -2.3959 0.9843
-2.4936 -1.9344 -2.3959 0.9843
-2.4817 -1.9496 -2.3959 0.9843
-2.4698 -1.9648 -2.3959 0.9843
-2.4577 -1.9800 -2.3960 0.9843
-2.4455 -1.9950 -2.3960 0.9843
-2.4332 -2.0100 -2.3960 0.9843
-2.4084 -2.0398 -2.3960 0.9843
-2.3959 -2.0545 -2.3961 0.9843
-2.3832 -2.0692 -2.3961 0.9843
-2.3705 -2.0838 -2.3961 0.9843
-2.3577 -2.0983 -2.3961 0.9843
-2.3448 -2.1128 -2.3961 0.9843
-2.3056 -2.1556 -2.3962 0.9843
-2.2923 -2.1697 -2.3962 0.9843
-2.2790 -2.1838 -2.3962 0.9843
-2.2520 -2.2116 -2.3963 0.9843
-2.2384 -2.2254 -2.3963 0.9843
-2.2110 -2.2528 -2.3963 0.9843
-2.1972 -2.2663 -2.3963 0.9843
-2.1832 -2.2798 -2.3964 0.9843
-2.1692 -2.2931 -2.3964 0.9843
-2.1551 -2.3064 -2.3964 0.9843
-2.1409 -2.3196 -2.3964 0.9843
-2.1267 -2.3327 -2.3965 0.9843
-2.1123 -2.3458 -2.3965 0.9843
-2.0979 -2.3587 -2.3965 0.9843
-2.0835 -2.3716 -2.3965 0.9843
-2.0689 -2.3843 -2.3965 0.9843
-2.0542 -2.3970 -2.3966 0.9843
-2.0395 -2.4096 -2.3966 0.9843
-2.0247 -2.4221 -2.3966 0.9843
-2.0098 -2.4345 -2.3966 0.9843
-1.9948 -2.4468 -2.3967 0.9843
-1.9798 -2.4590 -2.3967 0.9843
-1.9647 -2.4711 -2.3967 0.9843
-1.9495 -2.4831 -2.3967 0.9843
-1.9343 -2.4951 -2.3967 0.9843
-1.9190 -2.5069 -2.3968 0.9843
-1.9036 -2.5187 -2.3968 0.9843
-1.8881 -2.5303 -2.3968 0.9843
-1.8725 -2.5419 -2.3968 0.9843
-1.8569 -2.5534 -2.3969 0.9843
-1.8412 -2.5647 -2.3969 0.9843
-1.8255 -2.5760 -2.3969 0.9843
-1.8097 -2.5872 -2.3969 0.9843
-1.7938 -2.5983 -2.3970 0.9843
-1.7778 -2.6093 -2.3970 0.9843
-1.7618 -2.6201 -2.3970 0.9843
-1.7457 -2.6309 -2.3970 0.9843
-1.7295 -2.6416 -2.3971 0.9843
-1.7133 -2.6522 -2.3971 0.9843
-1.6970 -2.6627 -2.3971 0.9843
-1.6807 -2.6731 -2.3971 0.9843
-1.6642 -2.6834 -2.3972 0.9843
-1.6312 -2.7037 -2.3972 0.9843
-1.6146 -2.7137 -2.3972 0.9843
-1.5812 -2.7333 -2.3973 0.9843
-1.5476 -2.7526 -2.3973 0.9843
-1.5307 -2.7621 -2.3974 0.9843
-1.5138 -2.7714 -2.3974 0.9843
-1.4967 -2.7807 -2.3974 0.9843
-1.4797 -2.7899 -2.3974 0.9843
-1.4625 -2.7989 -2.3975 0.9843
-1.4453 -2.8079 -2.3975 0.9843
-1.4281 -2.8167 -2.3975 0.9843
-1.3935 -2.8341 -2.3976 0.9843
-1.3586 -2.8510 -2.3976 0.9843
-1.3411 -2.8594 -2.3977 0.9843
-1.3235 -2.8676 -2.3977 0.9843
-1.3060 -2.8757 -2.3977 0.9843
-1.2883 -2.8837 -2.3977 0.9843
-1.2706 -2.8916 -2.3978 0.9843
-1.2529 -2.8993 -2.3978 0.9843
-1.2350 -2.9070 -2.3978 0.9843
-1.2172 -2.9146 -2.3979 0.9843
-1.1814 -2.9293 -2.3979 0.9843
-1.1273 -2.9507 -2.3980 0.9843
-1.1092 -2.9576 -2.3980 0.9843
-1.0910 -2.9644 -2.3981 0.9843
-1.0728 -2.9711 -2.3981 0.9843
-1.0546 -2.9776 -2.3981 0.9843
-1.0363 -2.9841 -2.3981 0.9843
-1.0180 -2.9904 -2.3982 0.9843
-0.9996 -2.9966 -2.3982 0.9843
-0.9812 -3.0027 -2.3982 0.9843
-0.9628 -3.0087 -2.3983 0.9843
-0.9443 -3.0146 -2.3983 0.9843
-0.9258 -3.0204 -2.3983 0.9843
-0.9073 -3.0261 -2.3984 0.9843
-0.8887 -3.0316 -2.3984 0.9843
-0.8701 -3.0371 -2.3984 0.9843
-0.8514 -3.0424 -2.3984 0.9843
-0.8328 -3.0476 -2.3985 0.9843
-0.8141 -3.0527 -2.3985 0.9843
-0.7954 -3.0576 -2.3985 0.9843
-0.7766 -3.0625 -2.3986 0.9843
-0.7578 -3.0673 -2.3986 0.9843
-0.7390 -3.0719 -2.3986 0.9843
-0.7201 -3.0764 -2.3987 0.9843
-0.7012 -3.0808 -2.3987 0.9843
-0.6823 -3.0851 -2.3987 0.9843
-0.6634 -3.0893 -2.3987 0.9843
-0.6444 -3.0933 -2.3988 0.9843
-0.6254 -3.0973 -2.3988 0.9843
-0.6064 -3.1011 -2.3988 0.9843
-0.5874 -3.1048 -2.3989 0.9843
-0.5683 -3.1084 -2.3989 0.9843
-0.5493 -3.1118 -2.3989 0.9843
-0.5302 -3.1152 -2.3990 0.9843
-0.5111 -3.1184 -2.3990 0.9843
-0.4919 -3.1215 -2.3990 0.9843
-0.4727 -3.1245 -2.3991 0.9843
-0.4536 -3.1274 -2.3991 0.9843
-0.4344 -3.1302 -2.3991 0.9843
-0.4152 -3.1328 -2.3991 0.9843
-0.3959 -3.1354 -2.3992 0.9843
-0.3767 -3.1378 -2.3992 0.9843
-0.3382 -3.1422 -2.3993 0.9843
-0.2803 -3.1480 -2.3994 0.9843
-0.2417 -3.1513 -2.3994 0.9843
-0.1836 -3.1554 -2.3995 0.9843
-0.1643 -3.1565 -2.3996 0.9843
-0.1449 -3.1575 -2.3996 0.9843
-0.1255 -3.1583 -2.3996 0.9843
-0.1061 -3.1591 -2.3997 0.9843
-0.0867 -3.1597 -2.3997 0.9843
-0.0674 -3.1603 -2.3997 0.9843
-0.0479 -3.1606 -2.3998 0.9843
-0.0285 -3.1609 -2.3998 0.9843
-0.0092 -3.1611 -2.3998 0.9843
0.0103 -3.1611 -2.3998 0.9842
0.0296 -3.1610 -2.3999 0.9842
0.0490 -3.1608 -2.3999 0.9842
0.0684 -3.1605 -2.3999 0.9842
0.0878 -3.1601 -2.4000 0.9842
0.1072 -3.1595 -2.4000 0.9842
0.1266 -3.1588 -2.4000 0.9842
0.1460 -3.1581 -2.4001 0.9842
0.1654 -3.1571 -2.4001 0.9842
0.1847 -3.1561 -2.4001 0.9842
0.2041 -3.1550 -2.4002 0.9842
0.2234 -3.1537 -2.4002 0.9842
0.2428 -3.1523 -2.4002 0.9842
0.2621 -3.1508 -2.4003 0.9842
0.2815 -3.1492 -2.4003 0.9842
0.3008 -3.1474 -2.4003 0.9842
0.3201 -3.1456 -2.4004 0.9842
0.3394 -3.1436 -2.4004 0.9842
0.3587 -3.1415 -2.4004 0.9842
0.3780 -3.1393 -2.4005 0.9842
0.3972 -3.1369 -2.4005 0.9842
0.4165 -3.1345 -2.4005 0.9842
0.4357 -3.1319 -2.4006 0.9842
0.4549 -3.1292 -2.4006 0.9842
0.4741 -3.1264 -2.4006 0.9842
0.4933 -3.1235 -2.4007 0.9842
0.5125 -3.1204 -2.4007 0.9842
0.5316 -3.1173 -2.4007 0.9842
0.5507 -3.1140 -2.4008 0.9842
0.5698 -3.1106 -2.4008 0.9842
0.5889 -3.1071 -2.4008 0.9842
0.6080 -3.1035 -2.4009 0.9842
0.6270 -3.0997 -2.4009 0.9842
0.6460 -3.0959 -2.4009 0.9842
0.6650 -3.0919 -2.4009 0.9842
0.6840 -3.0878 -2.4010 0.9842
0.7408 -3.0748 -2.4011 0.9842
0.7596 -3.0702 -2.4011 0.9842
0.7784 -3.0656 -2.4011 0.9842
0.7973 -3.0607 -2.4012 0.9842
0.8160 -3.0558 -2.4012 0.9842
0.8348 -3.0508 -2.4012 0.9842
0.8535 -3.0457 -2.4013 0.9842
0.8721 -3.0404 -2.4013 0.9842
0.8908 -3.0351 -2.4013 0.9842
0.9095 -3.0296 -2.4014 0.9842
0.9280 -3.0240 -2.4014 0.9842
0.9466 -3.0183 -2.4014 0.9842
0.9651 -3.0125 -2.4015 0.9842
0.9836 -3.0065 -2.4015 0.9842
1.0020 -3.0005 -2.4015 0.9842
1.0204 -2.9943 -2.4016 0.9842
1.0388 -2.9880 -2.4016 0.9842
1.0754 -2.9751 -2.4016 0.9842
1.0937 -2.9685 -2.4017 0.9842
1.1119 -2.9618 -2.4017 0.9842
1.1300 -2.9549 -2.4017 0.9842
1.8093 2.3628 -2.3178 0.9850
1.7882 2.3651 -2.3093 0.9851
1.7672 2.3674 -2.3009 0.9851
1.7378 2.3886 -2.3006 0.9851
1.7231 2.3992 -2.3006 0.9851
1.7083 2.4097 -2.3006 0.9851
1.6935 2.4201 -2.3005 0.9851
1.6637 2.4406 -2.3005 0.9851
1.6486 2.4508 -2.3005 0.9851
1.6335 2.4608 -2.3004 0.9851
1.6032 2.4806 -2.3004 0.9851
1.5879 2.4904 -2.3004 0.9851
1.5726 2.5000 -2.3003 0.9851
1.5417 2.5191 -2.3003 0.9851
1.5262 2.5285 -2.3003 0.9851
1.5107 2.5378 -2.3002 0.9851
1.4950 2.5470 -2.3002 0.9851
1.4794 2.5561 -2.3002 0.9851
1.4637 2.5651 -2.3002 0.9851
1.4479 2.5740 -2.3002 0.9851
1.4320 2.5828 -2.3001 0.9851
1.4002 2.6001 -2.3001 0.9851
1.3842 2.6086 -2.3001 0.9851
1.3681 2.6171 -2.3000 0.9851
1.3359 2.6336 -2.3000 0.9851
1.3197 2.6417 -2.2999 0.9851
1.3035 2.6497 -2.2999 0.9851
1.2872 2.6576 -2.2999 0.9851
1.2708 2.6655 -2.2999 0.9851
1.2545 2.6732 -2.2998 0.9851
1.2380 2.6808 -2.2998 0.9851
1.2215 2.6883 -2.2998 0.9851
1.2050 2.6957 -2.2998 0.9851
1.1884 2.7030 -2.2997 0.9851
1.1718 2.7102 -2.2997 0.9851
1.1551 2.7174 -2.2997 0.9851
1.1384 2.7244 -2.2997 0.9851
1.1216 2.7313 -2.2996 0.9851
1.1048 2.7381 -2.2996 0.9851
1.0880 2.7448 -2.2996 0.9851
1.0712 2.7513 -2.2996 0.9851
1.0542 2.7578 -2.2995 0.9851
1.0373 2.7642 -2.2995 0.9851
1.0203 2.7705 -2.2995 0.9851
1.0032 2.7767 -2.2994 0.9851
0.9862 2.7828 -2.2994 0.9851
0.9691 2.7887 -2.2994 0.9851
0.9519 2.7946 -2.2994 0.9851
0.9347 2.8003 -2.2993 0.9851
0.9176 2.8060 -2.2993 0.9851
0.8830 2.8169 -2.2993 0.9851
0.8657 2.8223 -2.2992 0.9851
0.8483 2.8275 -2.2992 0.9851
0.8310 2.8326 -2.2992 0.9851
0.8136 2.8376 -2.2991 0.9851
0.7962 2.8425 -2.2991 0.9851
0.7787 2.8473 -2.2991 0.9851
0.7612 2.8520 -2.2991 0.9851
0.7437 2.8566 -2.2990 0.9851
0.7261 2.8611 -2.2990 0.9851
0.7085 2.8654 -2.2990 0.9851
0.6909 2.8697 -2.2989 0.9851
0.6733 2.8739 -2.2989 0.9851
0.6556 2.8779 -2.2989 0.9851
0.6380 2.8818 -2.2989 0.9851
0.6203 2.8857 -2.2988 0.9851
0.6025 2.8894 -2.2988 0.9851
0.5848 2.8930 -2.2988 0.9851
0.5670 2.8965 -2.2987 0.9851
0.5492 2.8999 -2.2987 0.9851
0.5136 2.9063 -2.2987 0.9851
0.4957 2.9094 -2.2986 0.9851
0.4779 2.9123 -2.2986 0.9851
0.4600 2.9152 -2.2986 0.9851
0.4421 2.9179 -2.2985 0.9851
0.4242 2.9205 -2.2985 0.9851
0.4062 2.9230 -2.2985 0.9851
0.3883 2.9254 -2.2985 0.9851
0.3703 2.9277 -2.2984 0.9851
0.3523 2.9299 -2.2984 0.9851
0.3344 2.9320 -2.2984 0.9851
0.3163 2.9339 -2.2983 0.9851
0.2983 2.9358 -2.2983 0.9852
0.2803 2.9375 -2.2983 0.9852
0.2623 2.9391 -2.2982 0.9852
0.2442 2.9407 -2.2982 0.9852
0.2081 2.9433 -2.2982 0.9852
0.1901 2.9445 -2.2981 0.9852
0.1720 2.9456 -2.2981 0.9852
0.1539 2.9466 -2.2981 0.9852
0.1358 2.9474 -2.2980 0.9852
0.1177 2.9482 -2.2980 0.9852
0.0997 2.9488 -2.2980 0.9852
0.0816 2.9493 -2.2980 0.9852
0.0454 2.9500 -2.2979 0.9852
0.0272 2.9502 -2.2979 0.9852
0.0092 2.9503 -2.2978 0.9852
-0.0089 2.9502 -2.2978 0.9852
-0.0452 2.9498 -2.2977 0.9852
-0.0813 2.9490 -2.2977 0.9852
-0.0995 2.9484 -2.2977 0.9852
-0.1175 2.9477 -2.2976 0.9852
-0.1356 2.9469 -2.2976 0.9852
-0.1537 2.9459 -2.2976 0.9852
-0.1718 2.9449 -2.2975 0.9852
-0.1898 2.9437 -2.2975 0.9852
-0.2079 2.9425 -2.2975 0.9852
-0.2259 2.9411 -2.2974 0.9852
-0.2440 2.9396 -2.2974 0.9852
-0.2620 2.9380 -2.2974 0.9852
-0.2800 2.9363 -2.2974 0.9852
-0.2980 2.9345 -2.2973 0.9852
-0.3160 2.9326 -2.2973 0.9852
-0.3340 2.9306 -2.2973 0.9852
-0.3520 2.9284 -2.2972 0.9852
-0.4058 2.9213 -2.2971 0.9852
-0.4237 2.9187 -2.2971 0.9852
-0.4416 2.9160 -2.2971 0.9852
-0.4595 2.9133 -2.2970 0.9852
-0.4774 2.9103 -2.2970 0.9852
-0.4952 2.9073 -2.2970 0.9852
-0.5130 2.9042 -2.2970 0.9852
-0.5308 2.9010 -2.2969 0.9852
-0.5486 2.8976 -2.2969 0.9852
-0.5664 2.8941 -2.2969 0.9852
-0.6018 2.8869 -2.2968 0.9852
-0.6195 2.8831 -2.2968 0.9852
-0.6372 2.8792 -2.2967 0.9852
-0.6549 2.8752 -2.2967 0.9852
-0.6725 2.8711 -2.2967 0.9852
-0.6901 2.8669 -2.2967 0.9852
-0.7076 2.8626 -2.2966 0.9852
-0.7252 2.8581 -2.2966 0.9852
-0.7427 2.8536 -2.2966 0.9852
-0.7602 2.8489 -2.2965 0.9852
-0.7776 2.8442 -2.2965 0.9852
-0.7950 2.8393 -2.2965 0.9852
-0.8124 2.8343 -2.2964 0.9852
-0.8298 2.8293 -2.2964 0.9852
-0.8471 2.8241 -2.2964 0.9852
-0.8645 2.8188 -2.2964 0.9852
-0.8990 2.8079 -2.2963 0.9852
-0.9162 2.8023 -2.2963 0.9852
-0.9333 2.7966 -2.2962 0.9852
-0.9504 2.7908 -2.2962 0.9852
-0.9675 2.7849 -2.2962 0.9852
-0.9846 2.7789 -2.2962 0.9852
-1.0016 2.7727 -2.2961 0.9852
-1.0186 2.7665 -2.2961 0.9852
-1.0355 2.7601 -2.2961 0.9852
-1.0693 2.7472 -2.2960 0.9852
-1.0861 2.7405 -2.2960 0.9852
-1.1029 2.7337 -2.2960 0.9852
-1.1196 2.7269 -2.2959 0.9852
-1.1363 2.7200 -2.2959 0.9852
-1.1530 2.7129 -2.2959 0.9852
-1.1696 2.7057 -2.2958 0.9852
-1.1862 2.6985 -2.2958 0.9852
-1.2027 2.6911 -2.2958 0.9852
-1.2356 2.6761 -2.2957 0.9852
-1.2520 2.6684 -2.2957 0.9852
-1.2683 2.6607 -2.2957 0.9852
-1.2846 2.6528 -2.2956 0.9852
-1.3009 2.6448 -2.2956 0.9852
-1.3170 2.6367 -2.2956 0.9852
-1.3332 2.6286 -2.2956 0.9852
-1.3493 2.6203 -2.2955 0.9852
-1.3653 2.6120 -2.2955 0.9852
-1.3813 2.6035 -2.2955 0.9852
-1.3972 2.5950 -2.2954 0.9852
-1.4131 2.5863 -2.2954 0.9852
-1.4289 2.5776 -2.2954 0.9852
-1.4447 2.5687 -2.2954 0.9852
-1.4604 2.5598 -2.2953 0.9852
-1.4761 2.5507 -2.2953 0.9852
-1.4916 2.5416 -2.2953 0.9852
-1.5072 2.5324 -2.2952 0.9852
-1.5227 2.5230 -2.2952 0.9852
-1.5535 2.5041 -2.2952 0.9852
-1.5841 2.4848 -2.2951 0.9852
-1.5993 2.4750 -2.2951 0.9852
-1.6145 2.4651 -2.2951 0.9852
-1.6445 2.4450 -2.2950 0.9852
-1.6595 2.4349 -2.2950 0.9852
-1.6744 2.4246 -2.2949 0.9852
-1.6909 2.4167 -2.2972 0.9852
-1.7119 2.4150 -2.3056 0.9851
-1.7187 2.3933 -2.2949 0.9852
-1.7333 2.3827 -2.2948 0.9852
-1.7479 2.3720 -2.2948 0.9852
-1.7623 2.3612 -2.2948 0.9852
-1.7768 2.3503 -2.2948 0.9852
-1.7912 2.3393 -2.2947 0.9852
-1.8054 2.3283 -2.2947 0.9852
-1.8339 2.3059 -2.2947 0.9852
-1.8479 2.2946 -2.2946 0.9852
-1.8759 2.2717 -2.2946 0.9852
-1.9036 2.2484 -2.2945 0.9852
-1.9191 2.2387 -2.2966 0.9852
-1.9412 2.2366 -2.3066 0.9851
-1.9636 2.2346 -2.3169 0.9850
-1.9862 2.2325 -2.3273 0.9850
-2.0090 2.2303 -2.3379 0.9849
-2.0329 2.2292 -2.3497 0.9848
-2.0584 2.2296 -2.3634 0.9847
-2.1104 2.2303 -2.3914 0.9846
-2.1291 2.2227 -2.3973 0.9845
-2.1427 2.2096 -2.3972 0.9845
-2.1562 2.1963 -2.3972 0.9845
-2.1696 2.1830 -2.3972 0.9845
-2.1830 2.1697 -2.3972 0.9845
-2.1962 2.1562 -2.3971 0.9845
-2.2094 2.1427 -2.3971 0.9845
-2.2225 2.1291 -2.3971 0.9845
-2.2355 2.1154 -2.3971 0.9845
-2.2484 2.1016 -2.3970 0.9845
-2.2612 2.0877 -2.3970 0.9845
-2.2739 2.0738 -2.3970 0.9845
-2.2866 2.0598 -2.3970 0.9845
-2.2992 2.0457 -2.3969 0.9845
-2.3117 2.0315 -2.3969 0.9845
-2.3241 2.0173 -2.3969 0.9845
-2.3364 2.0030 -2.3969 0.9845
-2.3486 1.9886 -2.3968 0.9845
-2.3607 1.9741 -2.3968 0.9845
-2.3728 1.9596 -2.3968 0.9845
-2.3847 1.9449 -2.3968 0.9845
-2.3966 1.9303 -2.3968 0.9845
-2.4084 1.9155 -2.3967 0.9845
-2.4317 1.8858 -2.3967 0.9845
-2.4432 1.8708 -2.3967 0.9845
-2.4546 1.8558 -2.3966 0.9845
-2.4659 1.8406 -2.3966 0.9845
-2.4771 1.8255 -2.3966 0.9845
-2.4883 1.8102 -2.3966 0.9845
-2.4993 1.7949 -2.3966 0.9845
-2.5103 1.7795 -2.3965 0.9845
-2.5211 1.7641 -2.3965 0.9845
-2.5319 1.7485 -2.3965 0.9845
-2.5425 1.7329 -2.3965 0.9845
-2.5531 1.7173 -2.3965 0.9845
-2.5635 1.7016 -2.3964 0.9845
-2.5739 1.6858 -2.3964 0.9845
-2.5842 1.6700 -2.3964 0.9845
-2.5944 1.6541 -2.3964 0.9845
-2.6243 1.6060 -2.3963 0.9845
-2.6341 1.5898 -2.3963 0.9845
-2.6438 1.5737 -2.3963 0.9845
-2.6534 1.5574 -2.3963 0.9845
-2.6628 1.5411 -2.3962 0.9845
-2.6722 1.5247 -2.3962 0.9845
-2.6815 1.5082 -2.3962 0.9845
-2.6907 1.4917 -2.3962 0.9845
-1.5824 0.8646 -1.4045 0.9909
-1.5362 0.8272 -1.3589 0.9912
-1.4926 0.7920 -1.3160 0.9915
-1.1802 0.6078 -1.0340 0.9933
-1.1838 0.6004 -1.0338 0.9933
-1.1872 0.5931 -1.0336 0.9933
-1.1906 0.5856 -1.0334 0.9933
-1.1939 0.5782 -1.0332 0.9933
-1.1971 0.5707 -1.0329 0.9933
-1.2003 0.5632 -1.0326 0.9933
-1.2033 0.5557 -1.0323 0.9933
-1.2063 0.5481 -1.0320 0.9933
-1.2093 0.5405 -1.0316 0.9933
-1.2121 0.5329 -1.0313 0.9933
-1.2149 0.5252 -1.0309 0.9933
-1.2176 0.5175 -1.0304 0.9933
-1.2227 0.5021 -1.0295 0.9933
-1.2251 0.4943 -1.0290 0.9933
-1.2275 0.4866 -1.0284 0.9933
-1.2298 0.4787 -1.0279 0.9933
-1.2321 0.4709 -1.0273 0.9933
-1.2342 0.4631 -1.0267 0.9933
-1.2362 0.4552 -1.0261 0.9933
-1.2382 0.4473 -1.0254 0.9933
-1.2401 0.4394 -1.0247 0.9934
-1.2419 0.4315 -1.0240 0.9934
-1.2437 0.4236 -1.0233 0.9934
-1.2453 0.4157 -1.0225 0.9934
-1.2469 0.4077 -1.0218 0.9934
-1.2484 0.3997 -1.0210 0.9934
-1.2499 0.3917 -1.0202 0.9934
-1.2512 0.3838 -1.0193 0.9934
-1.2525 0.3758 -1.0185 0.9934
-1.2537 0.3677 -1.0176 0.9934
-1.2547 0.3597 -1.0166 0.9934
-1.2554 0.3516 -1.0154 0.9934
-1.2561 0.3435 -1.0142 0.9934
-1.2567 0.3354 -1.0130 0.9934
-1.2571 0.3272 -1.0118 0.9934
-1.2576 0.3191 -1.0105 0.9934
-1.2579 0.3110 -1.0092 0.9935
-1.2584 0.2948 -1.0066 0.9935
-1.2600 0.2870 -1.0065 0.9935
-1.2622 0.2794 -1.0069 0.9935
-1.2644 0.2717 -1.0072 0.9935
-1.2664 0.2641 -1.0076 0.9935
-1.2684 0.2564 -1.0079 0.9935
-1.2703 0.2486 -1.0082 0.9935
-1.2722 0.2409 -1.0085 0.9935
-1.2740 0.2331 -1.0087 0.9935
-1.2757 0.2254 -1.0090 0.9935
-1.2773 0.2176 -1.0092 0.9935
-1.2789 0.2098 -1.0094 0.9935
-1.2804 0.2020 -1.0096 0.9934
-1.2819 0.1942 -1.0098 0.9934
-1.2832 0.1863 -1.0099 0.9934
-1.2845 0.1785 -1.0101 0.9934
-1.2857 0.1706 -1.0102 0.9934
-1.2869 0.1627 -1.0103 0.9934
-1.2880 0.1548 -1.0104 0.9934
-1.2890 0.1470 -1.0105 0.9934
-1.2908 0.1311 -1.0106 0.9934
-1.2917 0.1232 -1.0106 0.9934
-1.2924 0.1153 -1.0106 0.9934
-1.2931 0.1074 -1.0106 0.9934
-1.2937 0.0994 -1.0105 0.9934
-1.2942 0.0915 -1.0105 0.9934
-1.2946 0.0835 -1.0104 0.9934
-1.2949 0.0756 -1.0103 0.9934
-1.2952 0.0676 -1.0101 0.9934
-1.2953 0.0596 -1.0099 0.9934
-1.2954 0.0517 -1.0097 0.9934
-1.2954 0.0437 -1.0095 0.9935
-1.2953 0.0358 -1.0092 0.9935
-1.2952 0.0278 -1.0090 0.9935
-1.2949 0.0199 -1.0087 0.9935
-1.2947 0.0119 -1.0084 0.9935
-1.2943 0.0040 -1.0081 0.9935
-1.2943 -0.0040 -1.0081 0.9935
-1.2947 -0.0119 -1.0084 0.9935
-1.2949 -0.0199 -1.0087 0.9935
-1.2952 -0.0278 -1.0090 0.9935
-1.2953 -0.0358 -1.0092 0.9935
-1.2954 -0.0437 -1.0095 0.9935
-1.2954 -0.0517 -1.0097 0.9934
-1.2953 -0.0596 -1.0099 0.9934
-1.2952 -0.0676 -1.0101 0.9934
-1.2950 -0.0756 -1.0103 0.9934
-1.2946 -0.0835 -1.0104 0.9934
-1.2942 -0.0915 -1.0105 0.9934
-1.2937 -0.0994 -1.0105 0.9934
-1.2930 -0.1074 -1.0106 0.9934
-1.2924 -0.1153 -1.0106 0.9934
-1.2909 -0.1312 -1.0106 0.9934
-1.2900 -0.1391 -1.0105 0.9934
-1.2890 -0.1470 -1.0105 0.9934
-1.2880 -0.1549 -1.0104 0.9934
-1.2869 -0.1627 -1.0103 0.9934
-1.2858 -0.1706 -1.0102 0.9934
-1.2845 -0.1785 -1.0101 0.9934
-1.2832 -0.1863 -1.0099 0.9934
-1.2819 -0.1942 -1.0098 0.9934
-1.2804 -0.2020 -1.0096 0.9934
-1.2773 -0.2176 -1.0092 0.9935
-1.2739 -0.2332 -1.0087 0.9935
-1.2722 -0.2409 -1.0085 0.9935
-1.2703 -0.2486 -1.0082 0.9935
-1.2684 -0.2563 -1.0079 0.9935
-1.2664 -0.2640 -1.0076 0.9935
-1.2644 -0.2717 -1.0072 0.9935
-1.2622 -0.2794 -1.0069 0.9935
-1.2600 -0.2870 -1.0065 0.9935
-1.2582 -0.3029 -1.0079 0.9935
-1.2579 -0.3110 -1.0092 0.9935
-1.2576 -0.3191 -1.0105 0.9934
-1.2567 -0.3354 -1.0130 0.9934
-1.2554 -0.3516 -1.0154 0.9934
-1.2547 -0.3597 -1.0166 0.9934
-1.2537 -0.3677 -1.0176 0.9934
-1.2512 -0.3838 -1.0193 0.9934
-1.2498 -0.3918 -1.0202 0.9934
-1.2484 -0.3997 -1.0210 0.9934
-1.2469 -0.4077 -1.0218 0.9934
-1.2453 -0.4157 -1.0225 0.9934
-1.2437 -0.4236 -1.0233 0.9934
-1.2419 -0.4315 -1.0240 0.9934
-1.2401 -0.4394 -1.0247 0.9934
-1.2382 -0.4473 -1.0254 0.9933
-1.2362 -0.4552 -1.0261 0.9933
-1.2342 -0.4631 -1.0267 0.9933
-1.2320 -0.4709 -1.0273 0.9933
-1.2298 -0.4787 -1.0279 0.9933
-1.2275 -0.4866 -1.0284 0.9933
-1.2251 -0.4943 -1.0290 0.9933
-1.2227 -0.5021 -1.0295 0.9933
-1.2202 -0.5098 -1.0300 0.9933
-1.2175 -0.5175 -1.0304 0.9933
-1.2149 -0.5252 -1.0309 0.9933
-1.2093 -0.5405 -1.0316 0.9933
-1.2063 -0.5481 -1.0320 0.9933
-1.2033 -0.5557 -1.0323 0.9933
-1.2003 -0.5632 -1.0326 0.9933
-1.1939 -0.5782 -1.0332 0.9933
-1.1906 -0.5856 -1.0334 0.9933
-1.1872 -0.5931 -1.0336 0.9933
-1.1802 -0.6078 -1.0340 0.9933
-1.1766 -0.6151 -1.0341 0.9933
-1.5362 -0.8272 -1.3590 0.9912
-1.5825 -0.8647 -1.4045 0.9909
-2.6901 -1.4914 -2.3957 0.9845
-2.6809 -1.5079 -2.3957 0.9845
-2.6716 -1.5244 -2.3957 0.9845
-2.6622 -1.5407 -2.3957 0.9845
-2.6527 -1.5571 -2.3957 0.9845
-2.6431 -1.5733 -2.3957 0.9845
-2.6335 -1.5895 -2.3957 0.9845
-2.6237 -1.6056 -2.3958 0.9845
-2.6138 -1.6217 -2.3958 0.9845
-2.6038 -1.6377 -2.3958 0.9845
-2.5937 -1.6537 -2.3958 0.9845
-2.5836 -1.6696 -2.3958 0.9845
-2.5733 -1.6854 -2.3958 0.9845
-2.5629 -1.7012 -2.3958 0.9845
-2.5524 -1.7169 -2.3959 0.9845
-2.5418 -1.7325 -2.3959 0.9845
-2.5312 -1.7481 -2.3959 0.9845
-2.5204 -1.7636 -2.3959 0.9845
-2.5096 -1.7791 -2.3959 0.9845
-2.4986 -1.7944 -2.3959 0.9845
-2.4876 -1.8097 -2.3959 0.9845
-2.4764 -1.8250 -2.3960 0.9845
-2.4652 -1.8402 -2.3960 0.9845
-2.4539 -1.8553 -2.3960 0.9845
-2.4310 -1.8853 -2.3960 0.9845
-2.4194 -1.9001 -2.3960 0.9845
-2.4077 -1.9150 -2.3961 0.9845
-2.3959 -1.9297 -2.3961 0.9845
-2.3840 -1.9444 -2.3961 0.9845
-2.3721 -1.9590 -2.3961 0.9845
-2.3600 -1.9735 -2.3961 0.9845
-2.3479 -1.9880 -2.3961 0.9845
-2.3357 -2.0024 -2.3962 0.9845
-2.3234 -2.0167 -2.3962 0.9845
-2.3109 -2.0309 -2.3962 0.9845
-2.2859 -2.0592 -2.3962 0.9845
-2.2733 -2.0732 -2.3963 0.9845
-2.2605 -2.0871 -2.3963 0.9845
-2.2347 -2.1147 -2.3963 0.9845
-2.2217 -2.1284 -2.3963 0.9845
-2.1955 -2.1555 -2.3964 0.9845
-2.1822 -2.1690 -2.3964 0.9845
-2.1689 -2.1824 -2.3964 0.9845
-2.1555 -2.1957 -2.3964 0.9845
-2.1420 -2.2089 -2.3965 0.9845
-2.1147 -2.2350 -2.3965 0.9845
-2.1010 -2.2480 -2.3965 0.9845
-2.0872 -2.2608 -2.3965 0.9845
-2.0733 -2.2736 -2.3966 0.9845
-2.0593 -2.2863 -2.3966 0.9845
-2.0453 -2.2989 -2.3966 0.9845
-2.0170 -2.3239 -2.3966 0.9845
-2.0027 -2.3363 -2.3967 0.9845
-1.9883 -2.3485 -2.3967 0.9845
-1.9739 -2.3607 -2.3967 0.9845
-1.9302 -2.3967 -2.3968 0.9845
-1.9007 -2.4202 -2.3968 0.9845
-1.8858 -2.4319 -2.3968 0.9845
-1.8709 -2.4434 -2.3969 0.9845
-1.8558 -2.4549 -2.3969 0.9845
-1.8407 -2.4662 -2.3969 0.9845
-1.8256 -2.4775 -2.3969 0.9845
-1.8104 -2.4887 -2.3970 0.9845
-1.7951 -2.4998 -2.3970 0.9845
-1.7643 -2.5217 -2.3970 0.9845
-1.7488 -2.5325 -2.3970 0.9845
-1.7333 -2.5432 -2.3971 0.9845
-1.7176 -2.5538 -2.3971 0.9845
-1.7020 -2.5643 -2.3971 0.9845
-1.6862 -2.5747 -2.3971 0.9845
-1.6545 -2.5953 -2.3972 0.9845
-1.6386 -2.6054 -2.3972 0.9845
-1.6226 -2.6155 -2.3972 0.9845
-1.6065 -2.6254 -2.3973 0.9845
-1.5904 -2.6352 -2.3973 0.9845
-1.5742 -2.6450 -2.3973 0.9845
-1.5579 -2.6546 -2.3973 0.9845
-1.5417 -2.6642 -2.3974 0.9845
-1.5253 -2.6736 -2.3974 0.9845
-1.5089 -2.6829 -2.3974 0.9845
-1.4924 -2.6922 -2.3974 0.9845
-1.4759 -2.7013 -2.3975 0.9845
-1.4593 -2.7103 -2.3975 0.9845
-1.4426 -2.7193 -2.3975 0.9845
-1.4260 -2.7281 -2.3975 0.9845
-1.4092 -2.7368 -2.3976 0.9845
-1.3755 -2.7540 -2.3976 0.9845
-1.3586 -2.7624 -2.3977 0.9845
-1.3417 -2.7707 -2.3977 0.9845
-1.3246 -2.7789 -2.3977 0.9845
-1.3076 -2.7870 -2.3977 0.9845
-1.2905 -2.7950 -2.3978 0.9845
-1.2733 -2.8029 -2.3978 0.9845
-1.2389 -2.8184 -2.3978 0.9845
-1.2216 -2.8260 -2.3979 0.9845
-1.2042 -2.8335 -2.3979 0.9845
-1.1868 -2.8408 -2.3979 0.9845
-1.1694 -2.8481 -2.3979 0.9845
-1.1168 -2.8692 -2.3980 0.9845
-1.0992 -2.8761 -2.3981 0.9845
-1.0815 -2.8828 -2.3981 0.9845
-1.0638 -2.8894 -2.3981 0.9845
-1.0461 -2.8959 -2.3981 0.9845
-1.0283 -2.9023 -2.3982 0.9845
-1.0105 -2.9086 -2.3982 0.9845
-0.9388 -2.9327 -2.3983 0.9845
-0.9208 -2.9384 -2.3983 0.9845
-0.9028 -2.9440 -2.3984 0.9845
-0.8847 -2.9496 -2.3984 0.9845
-0.8666 -2.9550 -2.3984 0.9845
-0.8485 -2.9603 -2.3985 0.9845
-0.7939 -2.9755 -2.3985 0.9845
-0.7756 -2.9803 -2.3986 0.9845
-0.7573 -2.9851 -2.3986 0.9845
-0.7390 -2.9897 -2.3986 0.9845
-0.7207 -2.9942 -2.3987 0.9845
-0.7023 -2.9986 -2.3987 0.9845
-0.6839 -3.0029 -2.3987 0.9845
-0.6654 -3.0071 -2.3988 0.9845
-0.6470 -3.0112 -2.3988 0.9845
-0.6285 -3.0151 -2.3988 0.9845
-0.6100 -3.0189 -2.3988 0.9845
-0.5915 -3.0227 -2.3989 0.9845
-0.5729 -3.0263 -2.3989 0.9845
-0.5544 -3.0298 -2.3989 0.9845
-0.5358 -3.0332 -2.3990 0.9845
-0.5171 -3.0364 -2.3990 0.9845
-0.4985 -3.0396 -2.3990 0.9845
-0.4799 -3.0426 -2.3991 0.9845
-0.4612 -3.0455 -2.3991 0.9845
-0.4425 -3.0483 -2.3991 0.9845
-0.4051 -3.0536 -2.3992 0.9845
-0.3863 -3.0561 -2.3992 0.9845
-0.3676 -3.0585 -2.3992 0.9845
-0.3300 -3.0628 -2.3993 0.9845
-0.3112 -3.0648 -2.3993 0.9845
-0.2924 -3.0667 -2.3994 0.9845
-0.2736 -3.0685 -2.3994 0.9845
-0.2548 -3.0701 -2.3994 0.9845
-0.2359 -3.0717 -2.3995 0.9845
-0.2171 -3.0731 -2.3995 0.9845
-0.1982 -3.0744 -2.3995 0.9845
-0.1794 -3.0757 -2.3996 0.9845
-0.1605 -3.0767 -2.3996 0.9845
-0.1416 -3.0777 -2.3996 0.9845
-0.1038 -3.0793 -2.3997 0.9845
-0.0849 -3.0799 -2.3997 0.9845
-0.0471 -3.0808 -2.3998 0.9845
-0.0282 -3.0811 -2.3998 0.9845
-0.0093 -3.0812 -2.3998 0.9845
0.0096 -3.0813 -2.3999 0.9845
0.0285 -3.0812 -2.3999 0.9845
0.0474 -3.0810 -2.3999 0.9845
0.0663 -3.0807 -2.4000 0.9845
0.0852 -3.0802 -2.4000 0.9845
0.1041 -3.0797 -2.4000 0.9845
0.1230 -3.0791 -2.4001 0.9845
0.1608 -3.0774 -2.4001 0.9845
0.1797 -3.0764 -2.4001 0.9845
0.1986 -3.0753 -2.4002 0.9845
0.2174 -3.0740 -2.4002 0.9845
0.2363 -3.0727 -2.4002 0.9845
0.2551 -3.0712 -2.4003 0.9845
0.2740 -3.0696 -2.4003 0.9845
0.2928 -3.0679 -2.4003 0.9845
0.3116 -3.0661 -2.4004 0.9845
0.3492 -3.0622 -2.4004 0.9845
0.3680 -3.0600 -2.4005 0.9845
0.3868 -3.0577 -2.4005 0.9845
0.4055 -3.0553 -2.4005 0.9845
0.4243 -3.0528 -2.4006 0.9845
0.4618 -3.0475 -2.4006 0.9845
0.4804 -3.0446 -2.4006 0.9845
0.4991 -3.0416 -2.4007 0.9845
0.5178 -3.0385 -2.4007 0.9845
0.5550 -3.0321 -2.4008 0.9845
0.5737 -3.0286 -2.4008 0.9845
0.5922 -3.0251 -2.4008 0.9845
0.6108 -3.0214 -2.4009 0.9845
0.6294 -3.0177 -2.4009 0.9845
0.6479 -3.0138 -2.4009 0.9845
0.6663 -3.0098 -2.4010 0.9845
0.6848 -3.0057 -2.4010 0.9845
0.7032 -3.0015 -2.4010 0.9845
0.7217 -2.9971 -2.4011 0.9845
0.7400 -2.9927 -2.4011 0.9845
0.7767 -2.9835 -2.4012 0.9845
0.7950 -2.9787 -2.4012 0.9845
0.8133 -2.9738 -2.4012 0.9845
0.8316 -2.9688 -2.4012 0.9845
0.8498 -2.9637 -2.4013 0.9845
0.8679 -2.9584 -2.4013 0.9845
0.8861 -2.9531 -2.4013 0.9845
0.9042 -2.9476 -2.4014 0.9845
0.9223 -2.9421 -2.4014 0.9845
0.9583 -2.9306 -2.4015 0.9845
0.9763 -2.9247 -2.4015 0.9845
1.0122 -2.9126 -2.4016 0.9845
1.0301 -2.9064 -2.4016 0.9845
1.0656 -2.8936 -2.4016 0.9845
1.0834 -2.8870 -2.4017 0.9845
1.1011 -2.8804 -2.4017 0.9845
1.1188 -2.8736 -2.4017 0.9845
1.1364 -2.8667 -2.4018 0.9845
1.1540 -2.8597 -2.4018 0.9845
1.1715 -2.8526 -2.4018 0.9845
1.2065 -2.8381 -2.4019 0.9845
1.2239 -2.8307 -2.4019 0.9845
1.2586 -2.8155 -2.4020 0.9845
1.2758 -2.8078 -2.4020 0.9845
1.3102 -2.7920 -2.4021 0.9845
1.3273 -2.7839 -2.4021 0.9845
1.3444 -2.7757 -2.4021 0.9845
1.3615 -2.7675 -2.4022 0.9845
1.3784 -2.7591 -2.4022 0.9845
1.3953 -2.7506 -2.4022 0.9845
1.4122 -2.7421 -2.4022 0.9845
1.4290 -2.7334 -2.4023 0.9845
1.4458 -2.7246 -2.4023 0.9845
1.4791 -2.7067 -2.4024 0.9845
1.5123 -2.6884 -2.4024 0.9845
1.5288 -2.6791 -2.4025 0.9845
1.5452 -2.6697 -2.4025 0.9845
1.5616 -2.6602 -2.4025 0.9845
1.5779 -2.6506 -2.4025 0.9845
1.5941 -2.6409 -2.4026 0.9845
1.6103 -2.6311 -2.4026 0.9845
1.6425 -2.6112 -2.4027 0.9845
1.6586 -2.6011 -2.4027 0.9845
1.6745 -2.5909 -2.4027 0.9845
1.6904 -2.5806 -2.4027 0.9845
1.7062 -2.5702 -2.4028 0.9845
1.7220 -2.5598 -2.4028 0.9845
1.7533 -2.5385 -2.4028 0.9845
1.7688 -2.5277 -2.4029 0.9845
1.7998 -2.5059 -2.4029 0.9845
1.8304 -2.4837 -2.4030 0.9845
1.8608 -2.4611 -2.4030 0.9845
1.8759 -2.4496 -2.4031 0.9845
1.8909 -2.4381 -2.4031 0.9845
1.9207 -2.4147 -2.4031 0.9845
1.9356 -2.4030 -2.4032 0.9845
1.9503 -2.3911 -2.4032 0.9845
1.9650 -2.3791 -2.4032 0.9845
1.9795 -2.3670 -2.4033 0.9845
1.9940 -2.3548 -2.4033 0.9845
2.0085 -2.3426 -2.4033 0.9845
2.0228 -2.3302 -2.4033 0.9845
2.0371 -2.3178 -2.4034 0.9845
2.0513 -2.3053 -2.4034 0.9845
2.0654 -2.2927 -2.4034 0.9845
2.0795 -2.2800 -2.4034 0.9845
2.1074 -2.2543 -2.4035 0.9845
2.1212 -2.2414 -2.4035 0.9845
2.1349 -2.2284 -2.4035 0.9845
2.1486 -2.2152 -2.4036 0.9845
2.1621 -2.2020 -2.4036 0.9845
2.1756 -2.1888 -2.4036 0.9845
2.1890 -2.1754 -2.4036 0.9845
2.2024 -2.1619 -2.4037 0.9845
2.2156 -2.1484 -2.4037 0.9845
2.2288 -2.1348 -2.4037 0.9845
2.2419 -2.1211 -2.4037 0.9845
2.2678 -2.0935 -2.4038 0.9845
2.2806 -2.0795 -2.4038 0.9845
2.2933 -2.0655 -2.4038 0.9845
2.3060 -2.0514 -2.4038 0.9845
2.3186 -2.0373 -2.4039 0.9845
2.3311 -2.0230 -2.4039 0.9845
2.3557 -1.9943 -2.4039 0.9845
2.3679 -1.9798 -2.4040 0.9845
2.3921 -1.9507 -2.4040 0.9845
2.4040 -1.9360 -2.4040 0.9845
2.4159 -1.9212 -2.4041 0.9845
2.4277 -1.9063 -2.4041 0.9845
2.4393 -1.8914 -2.4041 0.9845
2.4509 -1.8764 -2.4041 0.9845
2.4624 -1.8614 -2.4041 0.9845
2.4738 -1.8462 -2.4042 0.9845
2.4963 -1.8158 -2.4042 0.9845
2.5075 -1.8005 -2.4042 0.9845
2.5185 -1.7850 -2.4042 0.9845
2.5294 -1.7696 -2.4043 0.9845
2.5402 -1.7540 -2.4043 0.9845
2.5510 -1.7384 -2.4043 0.9845
2.5616 -1.7228 -2.4043 0.9845
2.5721 -1.7070 -2.4044 0.9845
2.5826 -1.6912 -2.4044 0.9845
2.5929 -1.6754 -2.4044 0.9845
2.6133 -1.6434 -2.4044 0.9845
2.6234 -1.6274 -2.4044 0.9845
2.6334 -1.6113 -2.4045 0.9845
2.6432 -1.5951 -2.4045 0.9845
2.6530 -1.5789 -2.4045 0.9845
2.6627 -1.5626 -2.4045 0.9845
2.6816 -1.5298 -2.4046 0.9845
2.6910 -1.5133 -2.4046 0.9845
2.7003 -1.4968 -2.4046 0.9845
2.7094 -1.4802 -2.4046 0.9845
2.7185 -1.4636 -2.4046 0.9845
2.7363 -1.4301 -2.4047 0.9845
2.7450 -1.4133 -2.4047 0.9845
2.7536 -1.3964 -2.4047 0.9845
2.7622 -1.3795 -2.4047 0.9845
2.7789 -1.3456 -2.4048 0.9845
2.7872 -1.3285 -2.4048 0.9845
1.8295 -0.8446 -1.5694 0.9898
1.8330 -0.8326 -1.5680 0.9898
1.8397 -0.8086 -1.5651 0.9899
1.8429 -0.7965 -1.5637 0.9899
1.8460 -0.7845 -1.5622 0.9899
1.8489 -0.7724 -1.5606 0.9899
1.8517 -0.7602 -1.5590 0.9899
1.8544 -0.7481 -1.5574 0.9899
1.8570 -0.7359 -1.5558 0.9899
1.8595 -0.7237 -1.5541 0.9899
1.8619 -0.7115 -1.5524 0.9899
1.8641 -0.6993 -1.5506 0.9900
1.8678 -0.6876 -1.5501 0.9900
1.8730 -0.6765 -1.5510 0.9900
1.8784 -0.6655 -1.5521 0.9899
1.8837 -0.6543 -1.5531 0.9899
1.8939 -0.6320 -1.5550 0.9899
1.8989 -0.6207 -1.5559 0.9899
1.9037 -0.6094 -1.5568 0.9899
1.9130 -0.5866 -1.5584 0.9899
1.9175 -0.5751 -1.5592 0.9899
1.9219 -0.5636 -1.5599 0.9899
1.9261 -0.5520 -1.5605 0.9899
1.9302 -0.5404 -1.5611 0.9899
1.9342 -0.5287 -1.5617 0.9899
1.9418 -0.5053 -1.5627 0.9899
1.9454 -0.4935 -1.5632 0.9899
1.9489 -0.4817 -1.5636 0.9899
1.9523 -0.4698 -1.5640 0.9899
1.9556 -0.4579 -1.5643 0.9899
1.9587 -0.4460 -1.5646 0.9899
1.9621 -0.4341 -1.5651 0.9899
1.9660 -0.4224 -1.5661 0.9899
1.9698 -0.4105 -1.5671 0.9899
1.9734 -0.3987 -1.5680 0.9898
1.9769 -0.3868 -1.5689 0.9898
1.9803 -0.3748 -1.5697 0.9898
1.9835 -0.3629 -1.5705 0.9898
1.9865 -0.3508 -1.5711 0.9898
1.9889 -0.3387 -1.5713 0.9898
1.9912 -0.3265 -1.5715 0.9898
1.9933 -0.3143 -1.5717 0.9898
1.9953 -0.3021 -1.5718 0.9898
1.9972 -0.2899 -1.5718 0.9898
1.9989 -0.2776 -1.5718 0.9898
2.0004 -0.2653 -1.5717 0.9898
2.0019 -0.2530 -1.5715 0.9898
2.0032 -0.2407 -1.5714 0.9898
2.0053 -0.2160 -1.5708 0.9898
2.0061 -0.2037 -1.5705 0.9898
2.0068 -0.1913 -1.5700 0.9898
2.0073 -0.1789 -1.5696 0.9898
2.0077 -0.1665 -1.5691 0.9898
2.0080 -0.1542 -1.5685 0.9898
2.0081 -0.1418 -1.5679 0.9898
2.0080 -0.1294 -1.5672 0.9898
2.0079 -0.1170 -1.5665 0.9899
2.0071 -0.0923 -1.5648 0.9899
2.0065 -0.0799 -1.5640 0.9899
2.0062 -0.0676 -1.5634 0.9899
2.0056 -0.0553 -1.5627 0.9899
2.0049 -0.0429 -1.5619 0.9899
2.0041 -0.0306 -1.5611 0.9899
2.0031 -0.0183 -1.5602 0.9899
2.0019 -0.0060 -1.5592 0.9899
2.0020 0.0063 -1.5592 0.9899
2.0031 0.0186 -1.5602 0.9899
2.0041 0.0309 -1.5611 0.9899
2.0056 0.0555 -1.5627 0.9899
2.0062 0.0679 -1.5634 0.9899
2.0066 0.0802 -1.5640 0.9899
2.0071 0.0926 -1.5648 0.9899
2.0075 0.1049 -1.5657 0.9899
2.0079 0.1173 -1.5665 0.9899
2.0080 0.1297 -1.5672 0.9898
2.0081 0.1421 -1.5679 0.9898
2.0080 0.1545 -1.5685 0.9898
2.0077 0.1668 -1.5691 0.9898
2.0073 0.1792 -1.5696 0.9898
2.0068 0.1916 -1.5701 0.9898
2.0061 0.2039 -1.5705 0.9898
2.0052 0.2163 -1.5708 0.9898
2.0043 0.2286 -1.5711 0.9898
2.0031 0.2410 -1.5714 0.9898
2.0019 0.2533 -1.5716 0.9898
2.0004 0.2656 -1.5717 0.9898
1.9989 0.2779 -1.5718 0.9898
1.9971 0.2901 -1.5718 0.9898
1.9953 0.3024 -1.5718 0.9898
1.9933 0.3146 -1.5717 0.9898
1.9912 0.3268 -1.5715 0.9898
1.9889 0.3390 -1.5713 0.9898
1.9864 0.3511 -1.5711 0.9898
1.9834 0.3631 -1.5705 0.9898
1.9802 0.3751 -1.5697 0.9898
1.9768 0.3871 -1.5689 0.9898
1.9733 0.3990 -1.5680 0.9898
1.9697 0.4108 -1.5671 0.9899
1.9659 0.4226 -1.5661 0.9899
1.9620 0.4344 -1.5651 0.9899
1.9586 0.4463 -1.5646 0.9899
1.9555 0.4582 -1.5643 0.9899
1.9523 0.4701 -1.5640 0.9899
1.9489 0.4820 -1.5636 0.9899
1.9454 0.4938 -1.5632 0.9899
1.9417 0.5056 -1.5627 0.9899
1.9380 0.5173 -1.5622 0.9899
1.9341 0.5290 -1.5617 0.9899
1.9260 0.5523 -1.5605 0.9899
1.9218 0.5638 -1.5598 0.9899
1.9174 0.5754 -1.5591 0.9899
1.9129 0.5869 -1.5584 0.9899
1.9083 0.5983 -1.5576 0.9899
1.9036 0.6096 -1.5568 0.9899
1.8987 0.6210 -1.5559 0.9899
1.8938 0.6322 -1.5550 0.9899
1.8887 0.6435 -1.5541 0.9899
1.8836 0.6546 -1.5531 0.9899
1.8728 0.6768 -1.5510 0.9900
1.8676 0.6879 -1.5501 0.9900
1.8618 0.7118 -1.5524 0.9899
1.8595 0.7240 -1.5541 0.9899
1.8570 0.7362 -1.5558 0.9899
1.8544 0.7484 -1.5575 0.9899
1.8517 0.7605 -1.5591 0.9899
1.8488 0.7726 -1.5606 0.9899
1.8459 0.7847 -1.5622 0.9899
1.8428 0.7968 -1.5637 0.9899
1.8396 0.8089 -1.5652 0.9899
1.8363 0.8209 -1.5666 0.9899
1.8329 0.8329 -1.5680 0.9898
1.8294 0.8449 -1.5694 0.9898
2.7875 1.3292 -2.4052 0.9845
2.7793 1.3462 -2.4052 0.9845
2.7710 1.3632 -2.4052 0.9845
2.7626 1.3802 -2.4052 0.9845
2.7540 1.3971 -2.4052 0.9845
2.7454 1.4140 -2.4052 0.9845
2.7366 1.4308 -2.4052 0.9845
2.7278 1.4475 -2.4052 0.9845
2.7189 1.4643 -2.4052 0.9845
2.7098 1.4809 -2.4051 0.9845
2.7007 1.4975 -2.4051 0.9845
2.6914 1.5141 -2.4051 0.9845
2.6820 1.5305 -2.4051 0.9845
2.6726 1.5469 -2.4051 0.9845
2.6630 1.5633 -2.4051 0.9845
2.6534 1.5796 -2.4051 0.9845
2.6436 1.5958 -2.4050 0.9845
2.6338 1.6120 -2.4050 0.9845
2.6238 1.6282 -2.4050 0.9845
2.6137 1.6442 -2.4050 0.9845
2.6036 1.6602 -2.4050 0.9845
2.5933 1.6762 -2.4050 0.9845
2.5830 1.6920 -2.4050 0.9845
2.5726 1.7078 -2.4050 0.9845
2.5620 1.7236 -2.4049 0.9845
2.5514 1.7392 -2.4049 0.9845
2.5406 1.7549 -2.4049 0.9845
2.5298 1.7704 -2.4049 0.9845
2.5189 1.7859 -2.4049 0.9845
2.4967 1.8166 -2.4048 0.9845
2.4855 1.8319 -2.4048 0.9845
2.4742 1.8471 -2.4048 0.9845
2.4628 1.8622 -2.4048 0.9845
2.4513 1.8773 -2.4048 0.9845
2.4397 1.8923 -2.4048 0.9845
2.4281 1.9072 -2.4047 0.9845
2.4045 1.9368 -2.4047 0.9845
2.3925 1.9515 -2.4047 0.9845
2.3805 1.9662 -2.4047 0.9845
2.3684 1.9807 -2.4047 0.9845
2.3561 1.9952 -2.4046 0.9845
2.3438 2.0096 -2.4046 0.9845
2.3314 2.0239 -2.4046 0.9845
2.3189 2.0382 -2.4046 0.9845
2.3064 2.0524 -2.4046 0.9845
2.2937 2.0665 -2.4046 0.9845
2.2810 2.0805 -2.4045 0.9845
2.2682 2.0944 -2.4045 0.9845
2.2553 2.1083 -2.4045 0.9845
2.2423 2.1221 -2.4045 0.9845
2.2291 2.1358 -2.4045 0.9845
2.2160 2.1494 -2.4044 0.9845
2.1815 2.1685 -2.3957 0.9845
2.1553 2.1689 -2.3814 0.9846
2.1293 2.1692 -2.3675 0.9847
2.1037 2.1696 -2.3537 0.9848
2.0803 2.1720 -2.3424 0.9849
2.0575 2.1748 -2.3317 0.9849
2.0350 2.1775 -2.3213 0.9850
2.0126 2.1802 -2.3109 0.9851
1.9904 2.1829 -2.3008 0.9851
1.9771 2.1952 -2.3010 0.9851
1.9636 2.2073 -2.3009 0.9851
1.9500 2.2193 -2.3009 0.9851
1.9363 2.2312 -2.3009 0.9851
1.9225 2.2430 -2.3009 0.9851
1.9087 2.2547 -2.3009 0.9851
1.8809 2.2780 -2.3008 0.9851
1.8668 2.2894 -2.3008 0.9851
1.8528 2.3008 -2.3008 0.9851
1.8386 2.3121 -2.3008 0.9851
1.8100 2.3345 -2.3007 0.9851
1.8089 2.3628 -2.3176 0.9850
1.7878 2.3651 -2.3091 0.9851
1.7668 2.3674 -2.3007 0.9851
1.7375 2.3888 -2.3006 0.9851
1.7228 2.3994 -2.3006 0.9851
1.7080 2.4099 -2.3006 0.9851
1.6932 2.4203 -2.3005 0.9851
1.6783 2.4306 -2.3005 0.9851
1.6633 2.4408 -2.3005 0.9851
1.6483 2.4510 -2.3005 0.9851
1.6332 2.4610 -2.3004 0.9851
1.6181 2.4710 -2.3004 0.9851
1.6029 2.4808 -2.3004 0.9851
1.5876 2.4906 -2.3004 0.9851
1.5723 2.5003 -2.3003 0.9851
1.5569 2.5098 -2.3003 0.9851
1.5414 2.5193 -2.3003 0.9851
1.5259 2.5287 -2.3003 0.9851
1.5104 2.5380 -2.3002 0.9851
1.4947 2.5472 -2.3002 0.9851
1.4791 2.5563 -2.3002 0.9851
1.4476 2.5742 -2.3001 0.9851
1.4317 2.5830 -2.3001 0.9851
1.4158 2.5917 -2.3001 0.9851
1.3999 2.6003 -2.3001 0.9851
1.3839 2.6088 -2.3001 0.9851
1.3678 2.6172 -2.3000 0.9851
1.3517 2.6255 -2.3000 0.9851
1.3356 2.6337 -2.3000 0.9851
1.3194 2.6419 -2.2999 0.9851
1.3031 2.6499 -2.2999 0.9851
1.2869 2.6578 -2.2999 0.9851
1.2705 2.6656 -2.2999 0.9851
1.2541 2.6733 -2.2998 0.9851
1.2376 2.6810 -2.2998 0.9851
1.2212 2.6885 -2.2998 0.9851
1.2046 2.6959 -2.2998 0.9851
1.1880 2.7032 -2.2997 0.9851
1.1714 2.7104 -2.2997 0.9851
1.1548 2.7175 -2.2997 0.9851
1.1380 2.7245 -2.2997 0.9851
1.1213 2.7314 -2.2996 0.9851
1.1045 2.7382 -2.2996 0.9851
1.0877 2.7449 -2.2996 0.9851
1.0539 2.7580 -2.2995 0.9851
1.0370 2.7644 -2.2995 0.9851
1.0199 2.7706 -2.2995 0.9851
1.0029 2.7768 -2.2994 0.9851
0.9858 2.7829 -2.2994 0.9851
0.9516 2.7947 -2.2994 0.9851
0.9344 2.8004 -2.2993 0.9851
0.9172 2.8061 -2.2993 0.9851
0.9000 2.8116 -2.2993 0.9851
0.8827 2.8171 -2.2993 0.9851
0.8654 2.8224 -2.2992 0.9851
0.8480 2.8276 -2.2992 0.9851
0.8306 2.8327 -2.2992 0.9851
0.8132 2.8378 -2.2991 0.9851
0.7958 2.8427 -2.2991 0.9851
0.7783 2.8474 -2.2991 0.9851
0.7608 2.8521 -2.2991 0.9851
0.7433 2.8567 -2.2990 0.9851
0.7258 2.8612 -2.2990 0.9851
0.7082 2.8655 -2.2990 0.9851
0.6906 2.8698 -2.2989 0.9851
0.6729 2.8739 -2.2989 0.9851
0.6553 2.8780 -2.2989 0.9851
0.6376 2.8819 -2.2989 0.9851
0.6199 2.8857 -2.2988 0.9851
0.6021 2.8894 -2.2988 0.9851
0.5844 2.8930 -2.2988 0.9851
0.5666 2.8966 -2.2987 0.9851
0.5489 2.8999 -2.2987 0.9851
0.5311 2.9032 -2.2987 0.9851
0.5132 2.9064 -2.2987 0.9851
0.4954 2.9094 -2.2986 0.9851
0.4775 2.9124 -2.2986 0.9851
0.4596 2.9152 -2.2986 0.9851
0.4417 2.9180 -2.2985 0.9851
0.4238 2.9206 -2.2985 0.9851
0.3879 2.9255 -2.2985 0.9851
0.3520 2.9299 -2.2984 0.9851
0.3340 2.9320 -2.2984 0.9851
0.3160 2.9340 -2.2983 0.9851
0.2979 2.9358 -2.2983 0.9852
0.2799 2.9375 -2.2983 0.9852
0.2619 2.9392 -2.2982 0.9852
0.2439 2.9407 -2.2982 0.9852
0.2078 2.9434 -2.2982 0.9852
0.1897 2.9446 -2.2981 0.9852
0.1354 2.9474 -2.2980 0.9852
0.1174 2.9482 -2.2980 0.9852
0.0993 2.9488 -2.2980 0.9852
0.0812 2.9493 -2.2980 0.9852
0.0631 2.9497 -2.2979 0.9852
0.0269 2.9502 -2.2979 0.9852
0.0088 2.9503 -2.2978 0.9852
-0.0093 2.9502 -2.2978 0.9852
-0.0274 2.9501 -2.2978 0.9852
-0.0455 2.9498 -2.2977 0.9852
-0.0636 2.9494 -2.2977 0.9852
-0.0817 2.9490 -2.2977 0.9852
-0.0998 2.9484 -2.2977 0.9852
-0.1179 2.9477 -2.2976 0.9852
-0.1360 2.9468 -2.2976 0.9852
-0.1541 2.9459 -2.2976 0.9852
-0.1902 2.9437 -2.2975 0.9852
-0.2082 2.9425 -2.2975 0.9852
-0.2263 2.9411 -2.2974 0.9852
-0.2443 2.9396 -2.2974 0.9852
-0.2624 2.9380 -2.2974 0.9852
-0.2804 2.9363 -2.2973 0.9852
-0.2984 2.9345 -2.2973 0.9852
-0.3164 2.9326 -2.2973 0.9852
-0.3344 2.9305 -2.2973 0.9852
-0.3703 2.9261 -2.2972 0.9852
-0.3882 2.9238 -2.2972 0.9852
-0.4062 2.9213 -2.2971 0.9852
-0.4241 2.9187 -2.2971 0.9852
-0.4420 2.9160 -2.2971 0.9852
-0.4598 2.9132 -2.2970 0.9852
-0.4777 2.9103 -2.2970 0.9852
-0.4955 2.9073 -2.2970 0.9852
-0.5312 2.9009 -2.2969 0.9852
-0.5667 2.8941 -2.2969 0.9852
-0.5845 2.8905 -2.2968 0.9852
-0.6022 2.8868 -2.2968 0.9852
-0.6199 2.8830 -2.2968 0.9852
-0.6375 2.8791 -2.2967 0.9852
-0.6552 2.8751 -2.2967 0.9852
-0.6728 2.8710 -2.2967 0.9852
-0.6904 2.8668 -2.2967 0.9852
-0.7080 2.8625 -2.2966 0.9852
-0.7255 2.8580 -2.2966 0.9852
-0.7430 2.8535 -2.2966 0.9852
-0.7605 2.8488 -2.2965 0.9852
-0.7780 2.8441 -2.2965 0.9852
-0.7954 2.8392 -2.2965 0.9852
-0.8128 2.8342 -2.2964 0.9852
-0.8302 2.8292 -2.2964 0.9852
-0.8475 2.8240 -2.2964 0.9852
-0.8648 2.8187 -2.2964 0.9852
-0.8821 2.8133 -2.2963 0.9852
-0.8993 2.8078 -2.2963 0.9852
-0.9165 2.8022 -2.2963 0.9852
-0.9337 2.7965 -2.2962 0.9852
-0.9508 2.7907 -2.2962 0.9852
-0.9850 2.7787 -2.2962 0.9852
-1.0020 2.7726 -2.2961 0.9852
-1.0190 2.7663 -2.2961 0.9852
-1.0528 2.7536 -2.2960 0.9852
-1.0696 2.7470 -2.2960 0.9852
-1.0865 2.7404 -2.2960 0.9852
-1.1033 2.7336 -2.2960 0.9852
-1.1200 2.7267 -2.2959 0.9852
-1.1533 2.7127 -2.2959 0.9852
-1.1699 2.7056 -2.2958 0.9852
-1.1865 2.6983 -2.2958 0.9852
-1.2030 2.6910 -2.2958 0.9852
-1.2195 2.6835 -2.2957 0.9852
-1.2360 2.6759 -2.2957 0.9852
-1.2523 2.6682 -2.2957 0.9852
-1.2687 2.6605 -2.2957 0.9852
-1.2849 2.6526 -2.2956 0.9852
-1.3335 2.6284 -2.2956 0.9852
-1.3496 2.6202 -2.2955 0.9852
-1.3656 2.6118 -2.2955 0.9852
-1.3975 2.5948 -2.2954 0.9852
-1.4135 2.5861 -2.2954 0.9852
-1.4292 2.5774 -2.2954 0.9852
-1.4450 2.5685 -2.2954 0.9852
-1.4607 2.5596 -2.2953 0.9852
-1.4764 2.5505 -2.2953 0.9852
-1.4920 2.5414 -2.2953 0.9852
-1.5075 2.5322 -2.2952 0.9852
-1.5230 2.5228 -2.2952 0.9852
-1.5385 2.5134 -2.2952 0.9852
-1.5538 2.5039 -2.2952 0.9852
-1.5691 2.4943 -2.2951 0.9852
-1.5844 2.4846 -2.2951 0.9852
-1.5996 2.4748 -2.2951 0.9852
-1.6147 2.4649 -2.2951 0.9852
-1.6298 2.4549 -2.2950 0.9852
-1.6448 2.4448 -2.2950 0.9852
-1.6598 2.4347 -2.2950 0.9852
-1.6913 2.4167 -2.2974 0.9852
-1.7123 2.4150 -2.3057 0.9851
-1.7189 2.3931 -2.2949 0.9852
-1.7336 2.3825 -2.2948 0.9852
-1.7481 2.3718 -2.2948 0.9852
-1.7627 2.3609 -2.2948 0.9852
-1.7915 2.3391 -2.2947 0.9852
-1.8058 2.3280 -2.2947 0.9852
-1.8200 2.3169 -2.2947 0.9852
-1.8482 2.2943 -2.2946 0.9852
-1.8623 2.2829 -2.2946 0.9852
-1.8762 2.2714 -2.2946 0.9852
-1.8901 2.2598 -2.2946 0.9852
-1.9039 2.2482 -2.2945 0.9852
-1.9195 2.2386 -2.2968 0.9852
-1.9417 2.2366 -2.3069 0.9851
-1.9641 2.2345 -2.3171 0.9850
-1.9867 2.2324 -2.3275 0.9850
-2.0094 2.2303 -2.3381 0.9849
-2.0334 2.2292 -2.3500 0.9848
-2.0589 2.2296 -2.3637 0.9847
-2.0847 2.2299 -2.3776 0.9846
-2.1294 2.2224 -2.3972 0.9845
-2.1430 2.2093 -2.3972 0.9845
-2.1565 2.1961 -2.3972 0.9845
-2.1699 2.1828 -2.3972 0.9845
-2.1832 2.1694 -2.3972 0.9845
-2.1965 2.1559 -2.3971 0.9845
-2.2096 2.1424 -2.3971 0.9845
-2.2227 2.1288 -2.3971 0.9845
-2.2357 2.1151 -2.3971 0.9845
